788
-0.5778059893750892	 0.15875442834012884	 0.8005855795133168
-0.5082415177199245	 0.15745061486811346	 0.8466993938484902
-0.4345648391153678	 0.15479493994972945	 0.8872383711103764
-0.35651083065932454	 0.1502806088110078	 0.9221256781144268
-0.27370705758522595	 0.144809404114163	 0.9508494534405217
-0.1852550981021801	 0.14175864071872124	 0.9724119684623035
-0.09332720950364386	 0.14069681711078383	 0.9856441739396412
-0.731439064419829	 0.08034709877196806	 0.677156731310834
-0.6731545947840034	 0.08043253964918719	 0.7351146156122637
-0.6105913112744669	 0.08028408888224642	 0.7878659249316947
-0.5436431927529347	 0.07972130597283429	 0.8355217485783247
-0.47247408771335625	 0.07861557786016705	 0.8778313205605869
-0.3967221687886083	 0.07657153924343864	 0.9147394821311441
-0.31583420659969447	 0.07361290843068524	 0.945954488151474
-0.2293028193846539	 0.07165699075617928	 0.9707139087795218
-0.1389272437124258	 0.07081979139127226	 0.9877670667225977
-0.04647840650989335	 0.07053803175902004	 0.996425684034622
-0.8051123219112423	 1.2663051569442609E-5	 0.5931223726570558
-0.755244311040994	 9.949963307191486E-6	 0.6554433846955913
-0.700170508734334	 5.129036970436156E-6	 0.7139756709247148
-0.6406662147271234	 4.877431105805239E-6	 0.7678195108770226
-0.5764815855790897	 2.9658576711055845E-6	 0.8171101403601735
-0.5079970701041275	 3.99006689543959E-6	 0.8613587967564397
-0.4349323878397845	 2.197352318124282E-6	 0.9004631130719098
-0.3568252370742379	 3.7830973517751928E-6	 0.9341711567869145
-0.27281533552727605	-4.720825313639536E-6	 0.9620664180184513
-0.18411863597850978	 1.1395255782913872E-5	 0.9829040277440931
-0.09266539344360371	-1.3518664588474807E-5	 0.9956973057486839
-0.7314338485847001	-0.0803634398022673	 0.6771604261087039
-0.6731570184259164	-0.0804434544334423	 0.7351112019162442
-0.6105879065680961	-0.08029212545165673	 0.7878677445759824
-0.5436453908906494	-0.07972964858308561	 0.8355195222735197
-0.4724697436685275	-0.07862350856442257	 0.8778329483556745
-0.3967253507226485	-0.07658140666591738	 0.9147372760782525
-0.3158236628428288	-0.07361948983366742	 0.9459574962466177
-0.22932586876254402	-0.07165382666392063	 0.9707086973138344
-0.13889268975267183	-0.07082911122525533	 0.9877712578002604
-0.046519579852413485	-0.07053569983854062	 0.9964239277228554
-0.6431100116881651	-0.15910310429362687	 0.7490632250154721
-0.5778054297722192	-0.15874235587275326	 0.800588377243705
-0.5082464147103383	-0.1574403743200665	 0.8466983586071514
-0.4345651823799121	-0.15477808796178116	 0.8872411429538246
-0.356517875659997	-0.15026675862064465	 0.9221252114482761
-0.2737126364192742	-0.14478480767264834	 0.9508515931161942
-0.18524045887821186	-0.14178531098506142	 0.9724108689147088
-0.09334074489355017	-0.14065521369946318	 0.9856488300616378
-0.5409193512569865	-0.23503031290746318	 0.8075685775526067
-0.46920363044383495	-0.2327191198179029	 0.8518742656340229
-0.39366539304538173	-0.22828239306767195	 0.8904575831187704
-0.3142564747784472	-0.22151749489901387	 0.9231320964593792
-0.23038633885805268	-0.21392400995532573	 0.9492937652972425
-0.14034057554004298	-0.21033808147030253	 0.9675031857004304
-0.047034035159067455	-0.2092949139997996	 0.9767207576940669
-0.4267691751491143	-0.30554946815079775	 0.8511801182213486
-0.3501895678288676	-0.2994005972878891	 0.8875396041459144
-0.27021290461898834	-0.2906080807955411	 0.917895380505699
-0.18598566180002057	-0.2809679105943419	 0.9415234287159604
-0.09439994520008133	-0.2772568904947595	 0.9561470948653239
-0.3045081184289914	-0.36841822624470977	 0.878375100046408
-0.2245945867926553	-0.35771703356917467	 0.9064192161896758
-0.14053769873926483	-0.34594279192296673	 0.9276705988386257
-0.047633084592930475	-0.34226465017394225	 0.9383954382313843
-0.1775691898277155	-0.4225763418864949	 0.8887622956121377
-0.09447115186834351	-0.40829874485801804	 0.9079467695917176
-0.04760690844484012	-0.4682777534017525	 0.8822978680339945
 0.04787146099623863	 0.46802913577310556	 0.882415464103823
 0.0474926701106075	 0.34229769874988	 0.9383905006532736
 0.09433513584690673	 0.4085364537058901	 0.9078539795243291
 0.04710505659802792	 0.2092594700489952	 0.9767249294646423
 0.09446206795208925	 0.27719415548045584	 0.956159148827062
 0.14066774518509473	 0.34579063583046354	 0.927707616459251
 0.17752116561856507	 0.4226903980960629	 0.8887176509526622
 0.04647798627485098	 0.07054709234986946	 0.9964250621862205
 0.09331473549221582	 0.1406987768917544	 0.985645075227986
 0.14027547491603765	 0.21036876072636437	 0.9675059563886589
 0.18592990503762952	 0.28106952656659534	 0.9415041113284253
 0.22461037931894876	 0.3576147065993046	 0.9064556796259213
 0.046518704849870564	-0.07054735767937514	 0.9964231432597042
 0.09267687845649698	-1.3345507713301179E-5	 0.9956962368219823
 0.13892809261114902	 0.07081121209251254	 0.9877675623978633
 0.18526548187465053	 0.14175640468460504	 0.9724103161508768
 0.23042578317476783	 0.21387308548150644	 0.9492956661414375
 0.2701926721865392	 0.2906697182798356	 0.9178818196106832
 0.3045400479075293	 0.368354255894884	 0.8783908591194504
 0.04703677423824037	-0.2092724553606228	 0.976725438030871
 0.0933217553718805	-0.1406592233970037	 0.9856500559771012
 0.13889415312102263	-0.07081909204698733	 0.9877717704158355
 0.18410975719470626	 1.0791977715449126E-5	 0.9829056908926916
 0.22930274273568682	 0.07166193952867542	 0.9707135615601957
 0.2737001831997162	 0.14481051611752369	 0.9508512628893218
 0.31426393420128007	 0.22147730155088236	 0.9231392010732038
 0.35017231718053865	 0.2994487573837928	 0.8875301628574178
 0.047623498836230654	-0.3423067149124707	 0.9383805812592394
 0.09443871056430544	-0.27724878041969647	 0.9561456184613002
 0.1403341638971653	-0.21035699293153012	 0.9675000041178747
 0.18525534303001093	-0.14178216134940014	 0.9724084926623819
 0.2293253171576098	-0.0716613533055072	 0.9707082720122381
 0.2728217454335127	-4.9372115259391665E-6	 0.9620646003227825
 0.3158329176418964	 0.07360746892983744	 0.9459553417849861
 0.3565177394236217	 0.150286094633686	 0.922122112974212
 0.39367217774960717	 0.22824910433948606	 0.8904631170543247
 0.42676489423098074	 0.30558242098548494	 0.8511704347759441
 0.04761681533955577	-0.4681824162216913	 0.8823479268620389
 0.09439468305132726	-0.4083319620891078	 0.9079397846487941
 0.14054908705806268	-0.3458946111711204	 0.9276868394506437
 0.18595663030460996	-0.28098384944344346	 0.941524406480097
 0.23038719139687067	-0.21390803955860624	 0.9492971571918117
 0.27370274199752215	-0.14478701164573052	 0.950854105676437
 0.3158212390175501	-0.07361519135819386	 0.945958639997921
 0.3568203244491467	 4.147782171466448E-6	 0.9341730332453414
 0.3967278949318443	 0.07657306514336337	 0.9147368709511483
 0.4345522002613613	 0.15479434921653504	 0.8872446645084088
 0.4692173524699467	 0.23269996404698073	 0.851871940419232
 0.17760006688046484	-0.4226122029415347	 0.8887390742895002
 0.22461415996823322	-0.35771000667866004	 0.9064171392155588
 0.27022256241544673	-0.2906264914310459	 0.9178867082816431
 0.3142659568005892	-0.221515803321796	 0.9231292744111788
 0.35652599807427293	-0.15027357976473374	 0.9221209594851619
 0.3967319895875793	-0.076585328157248	 0.9147340684313271
 0.43494164349816933	 2.6531737177507182E-6	 0.900458642439547
 0.47246244817198524	 0.07860602320039241	 0.877838440821518
 0.5082615328474706	 0.15746205368903746	 0.846685251953505
 0.5409094425370871	 0.2350021929935234	 0.8075833977134824
 0.30449623803502923	-0.3683971431605987	 0.8783880611288065
 0.3501729824351191	-0.2994029444633095	 0.8875453561476137
 0.3936556041915229	-0.22827182335938778	 0.890464620267862
 0.43455089931894597	-0.1547752229062621	 0.8872486383621067
 0.4724561922807873	-0.07861681724342928	 0.8778408411677217
 0.507977447968019	 6.203081341423794E-6	 0.8613703688410814
 0.543667557130031	 0.07972867024517147	 0.835505192362801
 0.577773972630479	 0.15875246601741544	 0.8006090750698394
 0.42678272524125627	-0.30556055872727006	 0.8511693429546938
 0.4692199090508484	-0.232723910627064	 0.8518639905364941
 0.5082687737199542	-0.15744861081288195	 0.8466834051841974
 0.5436713207231828	-0.0797429430395897	 0.835501381242721
 0.5765240325505593	 5.788955280391449E-6	 0.8170801918160355
 0.6105531178075716	 0.08025702733139042	 0.7878982801728799
 0.6431464073059209	 0.15913965824777582	 0.7490242105181031
 0.5408990612501386	-0.2350196883316942	 0.807585259669338
 0.5777724186084193	-0.158730876145123	 0.8006144772945211
 0.6105454873414325	-0.08027441884536725	 0.7879024213480063
 0.6405902328263953	 1.1885074436397349E-5	 0.7678829034860521
 0.6732089901027857	 0.08045160163977716	 0.7350627153096406
 0.6431548917824866	-0.1591151317222496	 0.7490221358766835
 0.6732145074837126	-0.08048040036599326	 0.7350545095912218
 0.7002918808616632	 1.4018892296977693E-5	 0.7138566252425655
 0.7313798565332646	 0.08027830801431207	 0.6772288377791813
 0.7313635872939745	-0.08032543265381763	 0.6772408198340275
 0.755083927113909	 3.0957735671952497E-5	 0.6556281431237189
 0.8053025310526464	 3.827341427837618E-5	 0.5928640923646391
 0.8823328922385728	-0.04773223574948456	-0.46819899716282026
 0.9383997253746944	-0.047568268934934314	-0.34226191024890834
 0.9079036477269611	-0.09443768793150338	-0.4084023623122549
 0.9767209388112625	-0.0470672421113187	-0.20928660350743974
 0.9561535920385745	-0.09441397841630322	-0.2772297045977159
 0.9276813037909127	-0.1405949560972585	-0.3458908164678587
 0.8887503265871853	-0.17753278353098634	-0.42261680960760606
 0.9964245895643272	-0.04650035277005564	-0.07053902823134557
 0.9856466753604534	-0.09333402522176668	-0.1406747706121735
 0.967505560693813	-0.14031171827111577	-0.21034640891243528
 0.9415136947666831	-0.18596919363781791	-0.2810114260746156
 0.9064372719283436	-0.22459419476848277	-0.35767152491552767
 0.9964243854794631	-0.04649579959995622	 0.07054491222926751
 0.9956967599360451	-0.09267125902222582	-2.0242249829098847E-6
 0.9877694905781675	-0.13890844491536328	-0.07082285940388579
 0.9724111854718994	-0.18524811390770418	-0.14177313801554
 0.9492935094518032	-0.2304034631364533	-0.21390670182911067
 0.9178918045398174	-0.2702006483710929	-0.2906307705293413
 0.8783781014301292	-0.3045261102860517	-0.3683961985173696
 0.9767256670939819	-0.047076293762222006	 0.20926249975910433
 0.9856471537205183	-0.09331767398386462	 0.14068226641934048
 0.9877692511569911	-0.13891360839734432	 0.07081607070987836
 0.9829048949627848	-0.18411400667740663	 1.8409810321909717E-6
 0.9707108587173534	-0.22931554226227202	-0.07165759446966173
 0.9508511355247309	-0.2737082178884962	-0.14479616545901158
 0.9231354662394912	-0.31425779402917037	-0.22150157981991117
 0.887534691870617	-0.35018477190185426	-0.2994207679072635
 0.9383838561325186	-0.04754674981514458	 0.34230840645809535
 0.9561533590219563	-0.09445833639819129	 0.277215397689082
 0.9675032234743688	-0.1402996809144446	 0.21036518747647018
 0.9724095696172037	-0.18526141051781675	 0.14176684622941174
 0.9707113785283813	-0.22931261073430828	 0.07165993408973376
 0.9620653659516805	-0.27281904558870756	-5.709616475408977E-7
 0.9459564680443162	-0.31582766286789754	-0.07361554137900835
 0.9221238058335268	-0.3565184491652566	-0.15027402343682864
 0.890459933081048	-0.3936671811578257	-0.22827014271811125
 0.8511765396794895	-0.4267675846533724	-0.3055616582432704
 0.882397281838226	-0.04776523301927774	 0.4680742670977807
 0.9078884642098636	-0.09434630982981086	 0.40845723200373485
 0.9277018647409112	-0.14061984253470447	 0.34582554856712205
 0.9415125180718484	-0.1859371394336694	 0.28103657856804265
 0.9492966891069341	-0.23040982897661635	 0.21388573295472457
 0.9508522778989279	-0.2737016623442101	 0.14480105539821034
 0.9459567971874157	-0.3158277389402531	 0.07361098539493782
 0.9341723230204789	-0.3568221838709584	 2.868260878708956E-7
 0.9147365806830082	-0.3967271644389923	-0.07658031703091264
 0.8872443159808796	-0.43455700742108855	-0.15478285131386213
 0.8518711461779056	-0.4692117105470566	-0.2327142475119363
 0.8887220940430848	-0.1775595516521535	 0.422664932513641
 0.9064395051325747	-0.22461507609106543	 0.3576527521599941
 0.9178827095036846	-0.27020540410234917	 0.2906550725311037
 0.9231352060062552	-0.3142655362546144	 0.22149167965047445
 0.9221219618303407	-0.35651993060410475	 0.15028182389167385
 0.9147359737580608	-0.39672933127398496	 0.0765763411230219
 0.9004598399209012	-0.4349391643511155	 1.7827536923874912E-6
 0.877837447743876	-0.47246260492467473	-0.07861617064134149
 0.8466887226572785	-0.5082597065426495	-0.15744928589919382
 0.8075789343992957	-0.5409089003953798	-0.23501877837219579
 0.8783917333834425	-0.30452073289274634	 0.36836813917885997
 0.8875365041861989	-0.35017144629811	 0.2994309802515952
 0.8904637478526879	-0.39366608044059	 0.2282571595168212
 0.8872452829778429	-0.43455334469271256	 0.1547875913952537
 0.8778383953948709	-0.47246176464323664	 0.07861063872503099
 0.8613676304081627	-0.5079820914973407	 1.7360936196841727E-6
 0.8355072299931257	-0.5436633127385446	-0.07973625907556342
 0.800606289624244	-0.5777814372295957	-0.15873934549129176
 0.8511699064310552	-0.4267715996870068	 0.30557452787616657
 0.8518699979121542	-0.4692170547247591	 0.23270767544833712
 0.8466868749933135	-0.5082605556878146	 0.15745648048261177
 0.835506850633384	-0.5436647181365989	 0.07973065155971458
 0.8170864356862134	-0.5765151833287947	 2.9943010037231457E-6
 0.787893280230431	-0.6105572670127432	-0.08027454556496227
 0.7490322793034249	-0.6431424493124397	-0.1591176748633286
 0.807582042293913	-0.5409083792566345	 0.2350092981444634
 0.8006064772716652	-0.5777791202034496	 0.15874683243322477
 0.7878935410701775	-0.6105580231458682	 0.0802662339474458
 0.7678696046164105	-0.6406061740920826	 4.619712382537198E-6
 0.7350686758587244	-0.673200688129024	-0.08046660968320982
 0.7490310542751821	-0.6431410117318708	 0.15912925174182993
 0.7350706776998512	-0.6732000261550646	 0.08045385988690709
 0.7138803622821113	-0.7002676833221404	 6.527181683619747E-6
 0.6772216523486314	-0.7313815513770242	-0.08032347039020979
 0.677217624137743	-0.7313876641286149	 0.08030177032743027
 0.6555909060499151	-0.755116258413432	 1.357757110415889E-5
 0.5929150808320558	-0.8052649915521846	 1.7388994075738114E-5
 0.047573470598891915	 0.46820066945920763	-0.8823405793757455
 0.17761689412677423	 0.42260137136798476	-0.8887408620282163
 0.09439734977104795	 0.4082992887761888	-0.9079542010151508
 0.30448833124582175	 0.3684022529381151	-0.8783886589461727
 0.22461612978314896	 0.3577250466588819	-0.9064107155336043
 0.14053116170833546	 0.34590680808016616	-0.9276850072695456
 0.04764377563677712	 0.342312128865199	-0.9383775770311478
 0.42678534042609767	 0.3055577915657926	-0.8511690250536703
 0.3501720581500458	 0.2993962222031972	-0.8875479884611394
 0.270228261491812	 0.29062046122656077	-0.9178869397739429
 0.18595809532348806	 0.2809716281010714	-0.941527764320253
 0.09443848538699706	 0.2772560907925477	-0.9561435209194509
 0.540899098015048	 0.2350216661390141	-0.807584659470293
 0.4692195373849632	 0.23272636056746546	-0.8518635259437177
 0.393653559068141	 0.22827433446608225	-0.8904648806421581
 0.31426614301385825	 0.2215209501887233	-0.9231279759506146
 0.23038272084453698	 0.21391144407056423	-0.9492974749950164
 0.1403409888606761	 0.2103566959594789	-0.9674990787130595
 0.04702828822407706	 0.2092722997458226	-0.9767258800020646
 0.6431516827216223	 0.15911272487673192	-0.7490254026364173
 0.5777745729564302	 0.15873032253466224	-0.8006130323402543
 0.5082680776062857	 0.157446998976737	-0.8466841227988334
 0.4345510211228037	 0.15477331567037456	-0.887248911409604
 0.35652718077232026	 0.15027168840478644	-0.9221208104334898
 0.2737024757850122	 0.14478466315048516	-0.9508545399089995
 0.1852548851004583	 0.14178377507366796	-0.9724083446126301
 0.09332145762104486	 0.14065591069894587	-0.9856505569079408
 0.7313692051176022	 0.0803313610177593	-0.6772340498252294
 0.6732095916992331	 0.08047865973899782	-0.7350592023577192
 0.6105486640990919	 0.08027660104375972	-0.7878997373344372
 0.5436693931850591	 0.07974273280775628	-0.8355026555781497
 0.4724566517262596	 0.07861740335293864	-0.8778405414023969
 0.39673166775342233	 0.07658596730925352	-0.9147341545022216
 0.31582125774681696	 0.0736153026017561	-0.9459586250878367
 0.22932546360050857	 0.07166071153097431	-0.970708284793782
 0.1388941158122909	 0.07081986280382735	-0.9877717204016165
 0.04651904838570634	 0.07054745146814934	-0.9964231205811303
 0.8052847069053064	-3.950601273967101E-5	-0.5928883025188723
 0.7550989354656977	-3.159373484602907E-5	-0.6556108576437748
 0.7002812047721847	-1.4169618697613455E-5	-0.713867098304747
 0.6405967871599607	-1.1781159193787248E-5	-0.7678774356246838
 0.5765210052250093	-5.477333061166934E-6	-0.8170823278619748
 0.5079784650325274	-5.74194085363775E-6	-0.8613697690482452
 0.43494163285556575	-2.348288604697448E-6	-0.9004586475810089
 0.3568197930902517	-3.837250096172022E-6	-0.9341732362063824
 0.2728212465634212	 3.8285595177075474E-6	-0.9620647417969973
 0.18411099723689975	-8.614413441052867E-6	-0.9829054586389406
 0.09267600433057009	 1.0504286989704318E-5	-0.9956963182170455
 0.731385765219037	-0.08028294304787115	-0.6772219071253791
 0.6732038563899918	-0.08044943633394323	-0.7350676539851241
 0.6105562343888221	-0.08025943806993585	-0.7878956195141837
 0.5436655426465876	-0.07972926892030044	-0.8355064460650352
 0.4724624358870657	-0.07860811696280988	-0.877838259944975
 0.3967276646900477	-0.07657585637016123	-0.9147367371494146
 0.3158309398648618	-0.0736096688060654	-0.9459558309362754
 0.22930754490341923	-0.07166039377551468	-0.9707125412882563
 0.1389210291103248	-0.07081494078117896	-0.9877682885338477
 0.04648652303294778	-0.07054592677886719	-0.9964247464767311
 0.6431431674757022	-0.15913678968672718	-0.7490276018262099
 0.5777764682644825	-0.15875072133780335	-0.800607619995306
 0.5082612004327415	-0.15745855223771432	-0.846686102674345
 0.43455295339194255	-0.15478953376711604	-0.887245135762659
 0.35651961656609304	-0.15028118632205323	-0.9221221871537427
 0.273701782369784	-0.14480385805732146	-0.9508518165409995
 0.18526033929040572	-0.14176404314636318	-0.972410182359687
 0.09331967762976905	-0.14068715074972243	-0.9856462668630167
 0.5409090655642973	-0.2350061589237136	-0.8075824961316838
 0.46921629637553963	-0.23270585641078792	-0.8518709125259198
 0.3936680313901872	-0.22825734386976224	-0.8904628380965126
 0.31426261295277086	-0.2214907936272761	-0.9231364137755894
 0.230413167919947	-0.2138875443018309	-0.9492954705683717
 0.14029567553583708	-0.21036169389467882	-0.967504563900194
 0.047082633016013745	-0.20926736979682145	-0.9767243181198059
 0.4267690671579642	-0.305574180772043	-0.8511713008335136
 0.35017469667255896	-0.2994327312635958	-0.8875346310191532
 0.2702019428479771	-0.2906514919046181	-0.9178848622429713
 0.18594345939711368	-0.2810378550080979	-0.9415108889226302
 0.09444768400856847	-0.27721402006413115	-0.9561548107212039
 0.3045264076961216	-0.36837266341403235	-0.8783878686918141
 0.2246078564066648	-0.3576505100998101	-0.9064421787768643
 0.1406231079499513	-0.3458368096225738	-0.9276971718295665
 0.0475417293075569	-0.34229321495550047	-0.938389651994242
 0.1775450383225782	-0.4226556686500507	-0.888729399268986
 0.09437032245819732	-0.4084569362099173	-0.9078861016125005
 0.047774895757628194	-0.4681035180361142	-0.8823812417189982
-0.047560525017482855	 0.46832059402771054	-0.8822776307203949
-0.04765641251129885	 0.3422593132375693	-0.9383962003592621
-0.09449388593524746	 0.4082559720020719	-0.907963637402677
-0.04702462690593449	 0.20929986857364935	-0.9767201490086148
-0.094390266135548	 0.2772663941065732	-0.9561452945855033
-0.14051589513915722	 0.34596684184009985	-0.9276649328073304
-0.17757974092106638	 0.4225564732758937	-0.8887696341049496
-0.046520118291642716	 0.07053414098902136	-0.9964240129327836
-0.09334413373203677	 0.14065047143205486	-0.9856491858586179
-0.1403498135188676	 0.21033341072571285	-0.9675028610695205
-0.18599362755729323	 0.28094999329655435	-0.9415272018241135
-0.22459356932721358	 0.3577353773531538	-0.9064122287385905
-0.04648659012454921	-0.07053765494596165	-0.9964253289501007
-0.09266400744410218	 1.0938425344068761E-5	-0.99569743476859
-0.13889192193904606	 0.07083106299101538	-0.9877712258087096
-0.1852377578404705	 0.14178783548843224	-0.972411015351914
-0.2303801154816756	 0.21393015796270434	-0.9492938901650544
-0.27021954612590415	 0.29059818120856057	-0.9178965595151707
-0.3044991532848434	 0.3684269976207465	-0.8783745289299866
-0.047081092045056096	-0.2092772111495929	-0.9767222837968291
-0.09332929802899022	-0.14068573289917985	-0.9856455583464254
-0.13892032895272238	-0.07082244808258416	-0.9877678487636946
-0.18411987394012574	-9.839217273317346E-6	-0.9829037958637978
-0.22932689843833634	 0.07165273648203226	-0.9707085345289231
-0.27371235670361405	 0.14478045334384507	-0.9508523366523871
-0.3142582965507022	 0.22152539824427028	-0.9231295797350274
-0.35018715296997377	 0.2993903580628262	-0.8875440109615955
-0.04754488881352465	-0.342278437210254	-0.9383948822156991
-0.09443268022981965	-0.2772174586245486	-0.9561552957225932
-0.14029826350887667	-0.2103541091235624	-0.9675058377246238
-0.1852525893661569	-0.1417659616596503	-0.9724113791229761
-0.22930798390754942	-0.07165622813720672	-0.9707127450926991
-0.27281583893307004	 3.3420128357157776E-6	-0.9620662752721748
-0.3158225831323404	 0.07361881285243364	-0.945957909411309
-0.35652353316346536	 0.15026487295576663	-0.9221233313696312
-0.3936575936141436	 0.22828385196273382	-0.8904606571449287
-0.4267779824407095	 0.305547924557215	-0.8511762564255513
-0.047770915437174336	-0.468135750154665	-0.8823643573181226
-0.09439569657535798	-0.4084452765121293	-0.9078887093487744
-0.14061763006027958	-0.3458547418480303	-0.927691317010924
-0.1859537118019309	-0.2810317388431929	-0.941510689705569
-0.23041138041411305	-0.21389485588573864	-0.9492942570148005
-0.27370584572168516	-0.1448027580103015	-0.950850814423791
-0.3158308037243015	-0.07361294359950575	-0.945955621556042
-0.35682268170663595	-3.953349265099419E-6	-0.93417213285564
-0.3967294372333541	 0.07658530506624817	-0.9147351773493878
-0.4345562130608058	 0.15477192087547947	-0.8872466118271549
-0.4692135379272512	 0.23272691566708362	-0.8518666788587743
-0.17753523775356755	-0.42264341698293156	-0.8887371835569704
-0.2246016443352804	-0.35765400952108345	-0.9064423372919983
-0.2701990362973211	-0.29064520983303493	-0.9178877070672152
-0.3142602614005176	-0.22149277611744964	-0.9231367386429076
-0.3565178213577029	-0.15027935312193758	-0.9221231799925698
-0.396727385470922	-0.07657620774674008	-0.9147368288335913
-0.43493964817263014	-3.078568165572349E-6	-0.9004596062222843
-0.4724590190606841	 0.07861931401964457	-0.8778390961738356
-0.5082644631778461	 0.15744404988774374	-0.846686840942672
-0.5409031930380809	 0.23502480257442204	-0.8075810039470115
-0.3045285719875469	-0.36838025761000776	-0.87838393350881
-0.35017887449358587	-0.29943057602048756	-0.8875337097837154
-0.3936686090038216	-0.22826138164329246	-0.8904615477016914
-0.4345549118431527	-0.15478844447524176	-0.8872443665923864
-0.4724627349952028	-0.07861034520352526	-0.8778378994255348
-0.5079808536739768	-4.880758399444283E-6	-0.8613683603876079
-0.5436665729044957	 0.07974106596056298	-0.8355046498408935
-0.5777782775481449	 0.1587321500591552	-0.8006099965220873
-0.4267673085458629	-0.3055706123552248	-0.8511734636496684
-0.46921447655902293	-0.23270753099126942	-0.8518714574437799
-0.508260117026047	-0.1574564656690806	-0.846687141073768
-0.5436649304550348	-0.07973012403931126	-0.8355067628176317
-0.5765183851741266	-4.702048672360358E-6	-0.8170841765290209
-0.6105519406187293	 0.08027636853415299	-0.787897222016725
-0.6431481447538753	 0.1591140009924306	-0.7490281694221047
-0.5409095529034835	-0.23500944171898697	-0.8075812144178961
-0.5777781840625872	-0.15874834217272032	-0.8006068535047348
-0.6105565928482	-0.08026298517679067	-0.7878949804003751
-0.6406001206825748	-8.437695571110601E-6	-0.7678746546867373
-0.673206512106835	 0.0804737497462	-0.7350625603707046
-0.6431427989361083	-0.15913253468891125	-0.749028822262609
-0.673203328404598	-0.0804527824954053	-0.7350677713066451
-0.7002775053186975	-1.0149294271725576E-5	-0.7138707274021069
-0.7313735038040174	 0.08032581033693498	-0.6772300658765452
-0.7313844723380973	-0.08029190387277528	-0.6772222410665556
-0.7551025725993363	-2.1648827016048183E-5	-0.6556066689602783
-0.8052816161638691	-2.7092943192597813E-5	-0.5928925011622929
-0.5929145437028137	 0.8052653843891413	-6.760393860874129E-5
-0.6772106165554603	 0.7313974480490313	-0.08027174977498337
-0.6555913540086785	 0.7551158677540831	-5.3057191536037977E-5
-0.7490311740351351	 0.6431376388063407	-0.15914231955753283
-0.7350751537347281	 0.6731971503929981	-0.08043702545851025
-0.7138793022911049	 0.7002687635352345	-2.402497044949939E-5
-0.6772296218735122	 0.7313707508159024	 0.08035461472773789
-0.8075819325335963	 0.5409108330932803	-0.23500402738599077
-0.8006046395474272	 0.5777792543615918	-0.158755612072446
-0.7878917972077898	 0.610561562241699	-0.08025643030720277
-0.7678703315619707	 0.6406053024733477	-1.870668246539583E-5
-0.7350629252971622	 0.6732046740791154	 0.08048579161324343
-0.8511702556933327	 0.42677094696926315	-0.3055744666131398
-0.8518709544603893	 0.4692165229334846	-0.23270524607957632
-0.8466867636724399	 0.5082596173277075	-0.15746010801400548
-0.8355081471796646	 0.543663520964953	-0.07972522792939521
-0.8170853411834131	 0.5765167344783377	-9.466742738931249E-6
-0.7878961454042804	 0.6105521527920152	 0.08028532106252463
-0.7490303685294076	 0.643148570384144	 0.1591019278121156
-0.8783897605641359	 0.30451954702409795	-0.3683738237393075
-0.8875366012316499	 0.35017284496957973	-0.2994290569067767
-0.890463340316846	 0.3936667422431613	-0.22825760798584907
-0.8872447770061159	 0.4345534948878074	-0.15479006995334002
-0.8778377759116838	 0.4724634716556728	-0.07860729694816948
-0.8613681966472982	 0.5079811312807729	-8.202893207906837E-6
-0.8355044493919415	 0.5436662197289979	 0.0797455739953638
-0.8006104265651451	 0.5777796187374713	 0.15872509898172543
-0.8887278529489915	 0.17756132239624994	-0.42265207935318483
-0.9064370051401911	 0.2246116099108872	-0.3576612648942023
-0.9178841423920895	 0.2702064555613582	-0.29064956996029784
-0.9231353080602677	 0.31426378558819884	-0.22149373824162413
-0.9221219583624037	 0.3565200360914653	-0.1502815949184257
-0.914736561301302	 0.39672818851389957	-0.07657524310865192
-0.90045904962594	 0.4349408004819842	-4.779097565812606E-6
-0.8778390710733068	 0.47245866983861	 0.07862169288106831
-0.8466867494358951	 0.508265704171155	 0.1574405357367599
-0.8075809592741291	 0.5409008994197249	 0.23503023470355916
-0.8823821200368986	 0.047741928425711073	-0.46810522589411707
-0.9078964383667396	 0.0943640146469605	-0.4084354170988325
-0.9276974826061493	 0.14060969354385836	-0.34584143020713304
-0.941513475399772	 0.18594249491677461	-0.281029827998325
-0.9492960458197852	 0.23040915794356814	-0.21388931092192554
-0.9508519698105631	 0.27370198088379544	-0.14480247638648577
-0.9459559866837475	 0.31583034406373856	-0.07361022364969305
-0.934172730854682	 0.3568211161138579	-4.7714376246269304E-6
-0.9147347386391809	 0.3967299979221792	 0.07658764048707205
-0.8872475720061047	 0.43455521979452527	 0.154769205330401
-0.8518648916541792	 0.46921467741889317	 0.23273116005747418
-0.9383857681167682	 0.047557346297134914	-0.34230169296846463
-0.9561529382820503	 0.09445067829576571	-0.2772194581627911
-0.9675036483083318	 0.1403015797806495	-0.21036196714501826
-0.9724100047421252	 0.18525954986439197	-0.14176629310757546
-0.9707123121608531	 0.22930898329661975	-0.0716588947640219
-0.962065353227818	 0.27281909044234	 2.9745293591798238E-6
-0.9459581022709005	 0.31582214092317207	 0.07361823178221961
-0.922122429843618	 0.3565259742096899	 0.1502646135759623
-0.890461703227846	 0.3936549942753175	 0.2282842538736811
-0.851174348749617	 0.4267822647331252	 0.3055472574577134
-0.9767249389991471	 0.047074916611967436	-0.20926620788624345
-0.9856467155214735	 0.09331982731771729	-0.14068390814561252
-0.9877683933535725	 0.13891917443868906	-0.07081711703377187
-0.98290471699736	 0.18411495651693674	-9.544944751627355E-6
-0.970708225236008	 0.22932704302181808	 0.07165646375609826
-0.9508534746904008	 0.27370886130170674	 0.1447795873530323
-0.9231281153878178	 0.3142606860485782	 0.22152811059730743
-0.8875468916228525	 0.3501827152586144	 0.29938700891106956
-0.9964247512258548	 0.046488873135963636	-0.07054431103244065
-0.9956967755551739	 0.09267109063593139	 1.0458329400600594E-5
-0.9877715647856755	 0.1388918530071203	 0.07082647082204685
-0.9724099044774526	 0.185243927174311	 0.1417873940771545
-0.9492951271641941	 0.23037836623261915	 0.21392655261632665
-0.9178939137474684	 0.2702259069542605	 0.2906006233924871
-0.8783787071499433	 0.30449143879165413	 0.36842341202505385
-0.9964235261732868	 0.04652076523574983	 0.07054059037372529
-0.9856501026244165	 0.0933353546581771	 0.14064987297295903
-0.967500952271277	 0.14035097917967412	 0.2103414129397221
-0.9415294421005043	 0.18598353556844308	 0.2809491664970287
-0.906408090187886	 0.22460154714022426	 0.35774085461988575
-0.9767223618246038	 0.04702093404807538	 0.20929037166820214
-0.9561435858125216	 0.09440567964023194	 0.2772670390818914
-0.9276700222489558	 0.14051095631405158	 0.3459552008227835
-0.8887620999401503	 0.17760009701745788	 0.42256376471411267
-0.9383885847089739	 0.04766340705955504	 0.3422792189358914
-0.9079686923122149	 0.09446583434652223	 0.40825122158061194
-0.8822930159349451	 0.04754204597482018	 0.468293484790197
-0.5453877421915487	 0.8346186778136356	 0.07722611806781322
-0.6295844860314448	 0.7608417690313807	 0.15729964223011028
-0.5611439931043408	 0.8135178476479182	 0.1526634552249288
-0.7019964141021545	 0.6721958057575799	 0.235273953742513
-0.6406370929083489	 0.731548134723461	 0.23328403668610553
-0.5733647303384558	 0.7870797084734329	 0.2275047659133445
-0.49957931963511737	 0.841178278241903	 0.2069773118167799
-0.7610718715838991	 0.5696608990016655	 0.3102516179367889
-0.7072816372841109	 0.6354685675942563	 0.3097295354989765
-0.6475608012994184	 0.697302918297725	 0.30730058371882657
-0.5818986724295262	 0.7555671174470765	 0.30085256531641985
-0.5104763897897852	 0.8119917244961243	 0.2829899199918567
-0.8046708036311264	 0.4555038309867653	 0.3808164357535234
-0.7591930662679272	 0.526485947655345	 0.38267275190710437
-0.7077851503894934	 0.5940967368552209	 0.382216232185527
-0.6502505413476257	 0.6581490059346403	 0.3794919227919938
-0.5867034947216129	 0.7188832765877691	 0.3728080523860493
-0.5176543583807034	 0.7775856204605137	 0.35692375670792764
-0.44455417099871536	 0.8313113107450061	 0.33360619549862214
-0.8313334867121231	 0.33360583262479376	 0.4445129720376924
-0.7942203094152618	 0.4078594688412703	 0.4504050996479085
-0.7515548096362059	 0.479520034571712	 0.453018658067226
-0.7031346553654259	 0.5483480456153164	 0.4526765702949588
-0.648519436444697	 0.6141947185957815	 0.44965251939970413
-0.5876633057298082	 0.6771497413337169	 0.4428544534160113
-0.5212489782214459	 0.7378757366362868	 0.42876438749802415
-0.4504268538571465	 0.7942173111564128	 0.4078412828341812
-0.8411355290258401	 0.20695203959954736	 0.49966176071019036
-0.8119809202362827	 0.28296861583746463	 0.5105053845193691
-0.777565857185636	 0.3569222361316418	 0.5176850925939007
-0.7378735527674385	 0.42875407749028355	 0.5212605501683529
-0.6928057226271609	 0.4982398990767904	 0.5213225811942227
-0.6419128849977322	 0.5653392330673955	 0.5180148642931562
-0.5846358395625755	 0.6301236096943004	 0.5110236507293842
-0.5213076613510373	 0.6928148887731086	 0.4982427642334782
-0.4530379833048576	 0.7515418979865528	 0.4795220133151738
-0.3807887232231456	 0.8046832201255156	 0.45550506420293246
-0.8347072393467998	 0.07717033835896467	 0.5452600879026512
-0.8135439997184843	 0.1527679600493563	 0.5610776335806025
-0.7871233342229005	 0.22746534659083553	 0.5733204800302665
-0.7555696979927906	 0.30089520020241606	 0.5818732765561854
-0.7189022492162425	 0.372794363612576	 0.5866889452942863
-0.6771509774447296	 0.4428687557675605	 0.5876511030454554
-0.6301323090865423	 0.51101915825929	 0.5846303900219598
-0.5773525088417467	 0.5773532523148454	 0.5773450463766112
-0.5180078665820882	 0.641915275724695	 0.5653429303974379
-0.45269074810281634	 0.7031345996484629	 0.5483364125783626
-0.3826551004761491	 0.759193325766002	 0.5264984028389313
-0.7607869993615891	 0.15733803243719346	 0.6296410764484651
-0.7315329826471917	 0.23322745429627734	 0.6406749955022292
-0.6972797101307509	 0.30732033639079276	 0.6475764176378154
-0.6581451536258616	 0.3794677114122127	 0.6502685697112913
-0.6141831526435138	 0.4496602554344194	 0.6485250262646206
-0.5653363648313289	 0.5180027986203539	 0.6419251476774996
-0.511011482310856	 0.5846384673741931	 0.6301310398741014
-0.4496672883387302	 0.6485090321384764	 0.6141948917346268
-0.3821888717680822	 0.7077965360322657	 0.5941007741767099
-0.31028026277652343	 0.7610579697174066	 0.5696638704191713
-0.6722282946734808	 0.2352559881253037	 0.7019713241234079
-0.6354777676106105	 0.3097609074519433	 0.7072596320214972
-0.5941149867803752	 0.38220313305645026	 0.707776905221404
-0.548352874060767	 0.45269561883160775	 0.7031186259799722
-0.4982553488284765	 0.5213126043681017	 0.6928021188555649
-0.4428723998601914	 0.5876678301134233	 0.6771340774852904
-0.37946793836754084	 0.6502524939316221	 0.6581609057721326
-0.3097595626506736	 0.7072868521059315	 0.6354481270603806
-0.5696382285858932	 0.3102655550074449	 0.7610831583404326
-0.5264773882446521	 0.3826458799768795	 0.7592125461317202
-0.4794971099084459	 0.4530323564335457	 0.7515611788894612
-0.4287420268310134	 0.521233669291366	 0.7378995435869937
-0.3727636026228884	 0.5867074426225471	 0.7189031042713031
-0.3073467974293734	 0.6475391923608717	 0.6973026175675363
-0.2352186698676323	 0.7020156926682926	 0.6721950197622408
-0.4555310360186277	 0.38079680354427753	 0.8046646939155815
-0.4078733667156118	 0.4504450394192498	 0.7941905207106557
-0.3569670456016053	 0.517665160452846	 0.7775585572854244
-0.3009247716313736	 0.5819193466964564	 0.7555224389513358
-0.23322772241056713	 0.640632482311199	 0.731570127948764
-0.3335539573897513	 0.4445484736134638	 0.8313353186997264
-0.28293636712401105	 0.510429277718554	 0.8120400018511292
-0.22736544948783763	 0.5733630488855206	 0.787121189240827
-0.15738839125189052	 0.6295331835232465	 0.7608658654074505
-0.20706768260610986	 0.4996016394379345	 0.8411427802050395
-0.15283844805559624	 0.5612197376710089	 0.8134327352918869
-0.07695763443976777	 0.5453781664400335	 0.834649733763776
 0.5453487189644965	 0.8346449402567655	 0.07721786339677271
 0.4996043481077238	 0.8411661014347064	 0.2069663865196312
 0.5611214457734147	 0.8135282560148961	 0.15269086337601973
 0.4445418529831638	 0.8313170717561978	 0.33360825402408106
 0.5104869016244779	 0.8119865378094159	 0.28298584008059263
 0.573351098128066	 0.7870920614364657	 0.22749638480432144
 0.6296039827797731	 0.7608236261084892	 0.15730936025226505
 0.38079681116458747	 0.8046807944934014	 0.4555025878964353
 0.4504189326180318	 0.794219620222261	 0.4078455344775036
 0.5176638199890884	 0.777580446802332	 0.35692130536715044
 0.5818896752130724	 0.7555691749647233	 0.30086479974159924
 0.6406496555751713	 0.731542680581498	 0.2332666399188934
 0.31027193667022757	 0.7610594421934027	 0.5696664381576054
 0.3826617646934755	 0.7591911622536461	 0.5264966789996239
 0.4530321535607333	 0.75154470033854	 0.4795231289866823
 0.521253229365482	 0.7378735827371256	 0.42876292607306227
 0.5866987017401458	 0.7188889583008844	 0.37280463920060947
 0.6475669083137079	 0.6972944387280879	 0.3073069556256524
 0.7019872742790729	 0.6722071616643758	 0.23526877939361485
 0.23523396809000505	 0.7020160402892806	 0.6721893032719206
 0.30974700470137145	 0.7072892353124103	 0.6354515958668406
 0.3821965674140557	 0.7077952850124317	 0.5940973138898069
 0.45268472757805406	 0.703136242446356	 0.5483392763390219
 0.5213122863856912	 0.6928130080857033	 0.49824054019174546
 0.5876579656906563	 0.677150979665013	 0.44285964604943673
 0.6502575778231304	 0.6581473088588788	 0.3794828089985251
 0.707272616426982	 0.6354727380874614	 0.3097415780939905
 0.15736031931251854	 0.6295340185516253	 0.7608709807793329
 0.2332510281324406	 0.6406258608520583	 0.7315684959610539
 0.30733248793823886	 0.6475413058821988	 0.6973069618425367
 0.37947670419299173	 0.6502486921987579	 0.6581596077461983
 0.44966270644149936	 0.6485108045484399	 0.6141963748017741
 0.5180100692211788	 0.6419130672139977	 0.5653434198125838
 0.584633618486984	 0.6301267035350578	 0.5110223768357476
 0.6485221935047265	 0.6141889664828458	 0.449656399912813
 0.7077807565169487	 0.5941052824157822	 0.3822110858020205
 0.7610774565199757	 0.5696500827552744	 0.31025777733038906
 0.0770312086136089	 0.5454062837195843	 0.8346245734333008
 0.15277511132080035	 0.5612147969630258	 0.8134480419981763
 0.22740502642642219	 0.5733725131197366	 0.787102861864163
 0.3008978491920031	 0.5819190525193834	 0.7555333881878216
 0.37277619460309835	 0.5867099578627305	 0.7188945222227986
 0.4428639887487204	 0.5876688208166897	 0.6771387188084099
 0.5110149349524613	 0.5846397940524332	 0.6301270089956945
 0.5773478095855906	 0.5773541778396017	 0.5773488201233965
 0.6419189781886806	 0.565338115385089	 0.5180085334567723
 0.7031248887622664	 0.5483523367228063	 0.4526865423377292
 0.7592041340965925	 0.5264802850861235	 0.382658584362454
 0.20705058471884874	 0.49957896326408324	 0.8411604572443753
 0.2829540953251088	 0.510434559205425	 0.812030504788775
 0.35695517383695835	 0.5176555964271483	 0.7775703745376881
 0.4287506371493973	 0.5212351110688181	 0.7378935222192038
 0.49825093620482197	 0.5213073950223709	 0.6928092121688396
 0.5653399686395026	 0.5180028352708996	 0.6419219442502301
 0.6301319512478899	 0.511013537195236	 0.5846356889719786
 0.6928018313747052	 0.49824994155205005	 0.521318154476931
 0.7515604783986036	 0.47950450465907907	 0.4530256916786434
 0.8046653845443745	 0.4555216429986966	 0.380806580399843
 0.3335673439811543	 0.4445592379899011	 0.8313241912438234
 0.40785930021257333	 0.4504449126063339	 0.7941978166283148
 0.47950487636016714	 0.4530398820225066	 0.7515516874066973
 0.5483428742389543	 0.45269803877899584	 0.7031248665471966
 0.6141871864571224	 0.44966890926607894	 0.6485152057055708
 0.6771384789914614	 0.44287543051775596	 0.587660474519805
 0.7378918817232073	 0.42874390811223134	 0.5212429684356756
 0.7941987432307567	 0.407873588760683	 0.450430340721146
 0.4555221377933069	 0.3807865574016432	 0.8046745799902099
 0.5264890766139291	 0.38264442502568885	 0.7592051739832734
 0.5941092916780202	 0.3821889657575658	 0.7077893358867476
 0.6581561498436144	 0.37946136023669946	 0.6502611463945416
 0.7189067997469675	 0.3727678272268869	 0.5867002303239017
 0.7775556886122281	 0.3569566549050286	 0.5176766342281408
 0.8313393303194366	 0.3335663797397208	 0.44453165035952985
 0.5696506366110855	 0.3102810678077486	 0.7610675470473487
 0.6354569922089354	 0.3097693058539341	 0.7072746200759257
 0.6972907615067566	 0.30734827350451194	 0.6475512587364208
 0.7555325773066078	 0.3009308192250024	 0.5819030560746381
 0.8120250083141753	 0.28293827753558265	 0.5104520711854945
 0.6722103514521993	 0.23522146350446982	 0.7020000758599149
 0.731558643899435	 0.2332129439231081	 0.6406509762130522
 0.787132401737572	 0.22737560714717825	 0.5733436276870038
 0.8411306144173435	 0.2070380068327213	 0.4996344195675835
 0.7608361998776394	 0.15739049738693717	 0.6295685096064169
 0.8134609526882224	 0.15285405216116044	 0.5611745870845214
 0.8346833474659141	 0.0769832026176477	 0.545323111538312
 0.5929838279371552	 0.8052143675080646	-4.651435905137434E-5
 0.6772052743351007	 0.731393255072457	 0.08035498022672077
 0.6555415319396584	 0.7551591214110766	-3.5381585731935636E-5
 0.7490427238998149	 0.6431332766134955	 0.15910558219350618
 0.7350804339492247	 0.6731875859631218	 0.08046881215827718
 0.7139115029333621	 0.7002359357508677	-1.6202926625388425E-5
 0.6771937092315758	 0.7314101476402126	-0.08029866814650284
 0.8075749289064469	 0.5409123355740555	 0.2350246357843527
 0.8006008477334617	 0.5777896897193194	 0.15873675397498596
 0.7878851248771986	 0.6105663622292288	 0.08028541157275965
 0.7678528254150347	 0.6406262860434377	-1.1503894637547058E-5
 0.7350874263351549	 0.6731837709143477	-0.08043684616826431
 0.8511781236273585	 0.42676519970372473	 0.3055605769402354
 0.8518729889809835	 0.46920839419353544	 0.23271418835758415
 0.8466922694296126	 0.5082550275319058	 0.15744531709985557
 0.8355110847519527	 0.5436573672997357	 0.07973640471789387
 0.8170939180683261	 0.5765045784884202	-6.135207582219347E-6
 0.7878841649398262	 0.6105700657157226	-0.08026666486762168
 0.7490414874709059	 0.6431281958103073	-0.15913193834410433
 0.8783779239017615	 0.3045298653062332	 0.368393517774945
 0.8875332561716951	 0.35018596733451757	 0.29942362543937023
 0.8904587307157201	 0.3936695841967811	 0.22827068881151116
 0.8872428729056933	 0.4345598708437851	 0.15478308412189176
 0.8778355045145564	 0.47246572491115923	 0.07861911852626623
 0.861364724188219	 0.5079870194309676	-3.714198129528454E-6
 0.8355116584198419	 0.5436581501122497	-0.07972505541579959
 0.8005993424513117	 0.5777872523248726	-0.15875321703008505
 0.8887480767761721	 0.1775273238458359	 0.4226238342956899
 0.9064403485262031	 0.22459397232778278	 0.3576638675596437
 0.9178915990631974	 0.2701982300406902	 0.2906336677883085
 0.9231363967065856	 0.31425683765289875	 0.2214990588331721
 0.9221244650958107	 0.3565169641158479	 0.1502735012215544
 0.9147372336486457	 0.39672572368022385	 0.07657998137389295
 0.9004606902721866	 0.4349374038484645	-2.845119762968523E-6
 0.8778366018465683	 0.47246505075508455	-0.07861091701198154
 0.8466900945291418	 0.5082551924434248	-0.15745648027480558
 0.8075786172408332	 0.5409136465468728	-0.23500894441435344
 0.8823401086513643	 0.04775353563483775	 0.4681832253503652
 0.9078963772490771	 0.09443022760067118	 0.4084202496121942
 0.9276833438160514	 0.1406052207717928	 0.34588117251157985
 0.9415120695759747	 0.18596644136733814	 0.28101869248847755
 0.9492932367777834	 0.23040689570251188	 0.2139042145931001
 0.9508508574518105	 0.2737083843891372	 0.14479767677088368
 0.9459560207389143	 0.3158289138522519	 0.07361592220916306
 0.9341720585942193	 0.35682287614653196	-5.961549468294842E-7
 0.9147364700894721	 0.3967283991251478	-0.07657524153308255
 0.8872437387832348	 0.4345560077689512	-0.15478896634404607
 0.8518720550226856	 0.4692143353141594	-0.2327056282239814
 0.938399918652712	 0.047557157938120646	 0.34226292437456945
 0.9561547206945485	 0.09441735808584853	 0.2772246608540053
 0.967505900426847	 0.14030657368549368	 0.210348277910405
 0.9724113280619717	 0.18524933260200535	 0.1417705675634547
 0.970711278404811	 0.22931362656237614	 0.07165803967810247
 0.9620653784920788	 0.2728190013663388	-6.054961560771009E-7
 0.9459568768730205	 0.31582744211558295	-0.07361123489909224
 0.9221223527786062	 0.3565190915818	-0.15028141549684668
 0.8904630010942716	 0.39366710807223465	-0.22825830040598064
 0.8511708731120549	 0.4267703342748378	-0.3055736025061806
 0.976721036127194	 0.04707311033627947	 0.20928482952638763
 0.9856463027791056	 0.09333288244516923	 0.1406781392838134
 0.9877691252738994	 0.13891143802795666	 0.07082208370727808
 0.9829049046831404	 0.18411395479370227	-2.224024593641208E-7
 0.970710992177953	 0.22931436902265687	-0.07165954105794224
 0.9508522561258862	 0.2737022686799867	-0.14480005227809944
 0.9231349715510995	 0.31426506330723625	-0.22149332785402223
 0.8875367267136665	 0.3501724763960753	-0.29942911600081695
 0.9964247127365846	 0.046497034459600524	 0.0705394757159228
 0.9956967219960078	 0.09267166668579098	-2.872633436792899E-7
 0.9877695937885483	 0.1389109807494541	-0.07081644592911106
 0.9724093902733081	 0.18526066722005027	-0.14176904771308532
 0.9492967621814442	 0.23040733903415175	-0.2138880909050996
 0.9178831718061496	 0.27020694221573577	-0.29065218267459186
 0.878391289529656	 0.30451844861923755	-0.36837108590246453
 0.9964242140280677	 0.04649925579557716	-0.0705450558792383
 0.9856475445565736	 0.0933181845618075	-0.1406791894335686
 0.9675027850411034	 0.1403043400684459	-0.2103640964985859
 0.941513916754205	 0.18593927722121736	-0.28103047831971356
 0.9064367615773323	 0.2246151917472138	-0.3576596327481768
 0.976725752880579	 0.04707084379774459	-0.2092633253201211
 0.9561522098259024	 0.09445666979563831	-0.27721992925502476
 0.9277002834931785	 0.14061069917535263	-0.34583350804121765
 0.8887237103742124	 0.17756563435042805	-0.4226589785115455
 0.9383830611401852	 0.04755742606163352	-0.3423091027004217
 0.9078951994081508	 0.09435094820796934	-0.4084411897248995
 0.8823918768973693	 0.047744718641756896	-0.4680865490775796
 0.5452795337910566	 0.8347076149480755	-0.07702874513000442
 0.62960097821238	 0.7608112463491089	-0.15738124304608225
 0.5611320170586891	 0.8134913897246316	-0.15284835058166138
 0.7019878509517814	 0.6722198857847357	-0.2352307001045068
 0.6406648514240344	 0.7315477118108162	-0.23320911966340138
 0.5733281555336281	 0.7871377762807634	-0.22739601409035895
 0.49965883300357616	 0.8411236131705685	-0.20700753118761733
 0.7610718980289447	 0.5696483218081938	-0.310274645260821
 0.7072690176082211	 0.6354639106564312	-0.30976790502687157
 0.6475608981964316	 0.6972848544685121	-0.3073413653510645
 0.5818900948555406	 0.7555439713392005	-0.30092727507156813
 0.5104734989343656	 0.8120103525049891	-0.2829416800516134
 0.8046751716393586	 0.45551572240388927	-0.3807929815398804
 0.759203192175064	 0.5264882147808257	-0.38264954290851066
 0.7077860939895131	 0.5941100405190735	-0.38219380543056036
 0.6502644101298373	 0.6581522337809079	-0.3794625595334744
 0.586694080404142	 0.7189085800177676	-0.3727740731268408
 0.5176847277281978	 0.7775544332160679	-0.35694765171243403
 0.44451763713704673	 0.8313425969760829	-0.33357691276099893
 0.8313203828159816	 0.3335906703959571	-0.44454885641452946
 0.7942086918398785	 0.40785300936441893	-0.4504314338036103
 0.7515501874850615	 0.4795119304893504	-0.4530349039638613
 0.703126809148224	 0.5483435634273895	-0.4526941867362443
 0.6485174958959863	 0.6141875513420696	-0.4496651079339291
 0.5876571952383334	 0.6771417032592277	-0.44287485206523886
 0.5212494423415063	 0.7378876864818068	-0.42874325766966315
 0.4504198522243708	 0.7942043429489323	-0.40787426783658576
 0.84116561068254	 0.20699853422971254	-0.4995918556500096
 0.8120041818916186	 0.2829731927437056	-0.5104658468291067
 0.7775763492685764	 0.3569363215507579	-0.5176596211952085
 0.7378838788376013	 0.4287558780210974	-0.5212444516864749
 0.6928095300203339	 0.49824783344044066	-0.5213099381221418
 0.6419208309809847	 0.5653389443577878	-0.5180053327380947
 0.5846328883297369	 0.6301333732052512	-0.5110149878978121
 0.5213213243799608	 0.6928002493923249	-0.4982488245732808
 0.4530195443703741	 0.7515627502844561	-0.4795067515721994
 0.38081487808986714	 0.8046628621416789	-0.4555191619628761
 0.8346340545463857	 0.0771538521511457	-0.5453744384271233
 0.8134986825475219	 0.1527164484146868	-0.5611573575005949
 0.7870943791974528	 0.227464998648586	-0.5733603689003758
 0.7555552983240026	 0.3008748165176792	-0.5819025141378755
 0.7188906537974707	 0.37279402929843003	-0.5867033659372396
 0.6771445272826165	 0.4428604046180669	-0.587664828956714
