801
 0.4303587177236837	-0.07492759070412335	-0.8995427895495034
-0.5453723788767599	 0.5998318449744389	 0.5854662467750509
 0.06939087470121927	 0.15563915980273493	-0.9853737151173145
 0.6785438286966179	 0.6764833603966289	 0.28626654649857297
 0.9012289546150328	-0.18808499520313696	-0.3903977535065119
-0.6720562377818533	-0.44032682008811025	 0.5953593072839243
 0.6966612790085247	-0.4756961926058208	-0.5370066989065708
 0.5145645613021841	 0.14297703140060702	 0.8454471484035893
 0.8463400483909427	-0.13158041569859194	-0.5161347853944768
-0.089983680194506	 0.54327895216683	-0.834716069949036
-0.888990931580351	-0.188167515295841	 0.417478274590773
-0.41689032121679415	-0.7440787793299753	 0.5220624773210312
-0.06668486169808573	-0.9729800913720684	 0.2210494763936541
-0.2143436284948401	 0.7107230455828903	 0.6700220603838704
 0.8302532730018798	-0.30950402070070093	 0.4635588030010499
-0.8632395884172114	-0.04391916080087572	-0.5028802246100262
 0.5865481439204085	-0.5460772855190007	-0.5981311504208116
-0.53891660718384	-0.775595077276743	-0.328665736890145
-0.4258078061848331	-0.8583439212694273	-0.28624015268980507
-0.494991114591179	 0.755746795486531	 0.428754682292359
 0.004018235600184858	-0.1353262452062259	 0.9907929456455803
 0.33865397509936096	-0.6741302319987279	-0.6564007277987609
 0.9105460258281325	-0.37831993821168874	 0.16667321080514988
-0.4074480623039799	 0.8928832927087218	-0.19169116340187195
 0.150261944304056	-0.354673997809574	-0.92283676962491
 0.581626581427363	-0.144047712806777	 0.800600259937664
 0.3337834759846091	 0.9364226493568192	-0.10817214489501202
 0.7561321685054969	 0.49108661160356987	 0.43254835990314394
-0.5890953919845264	 0.7408896260805394	 0.3225665529915272
-0.8094619717942483	-0.060949659999566926	 0.5840003896958502
 0.04858634950175487	-0.9986600107360704	 0.01781992140064359
-0.74969436078181	 0.245595712994041	-0.61452511028509
 0.9012027630395982	 0.3924761829172451	 0.18383695420807802
-0.4593326268087381	 0.8355262291158952	-0.30151195400573605
 0.33252549241967794	-0.9030818625534428	-0.27179026181608396
 0.9209426835982002	 0.3895790079992391	 0.009631721199981182
 0.9952679727337598	 0.011918230600404296	-0.09643452820327107
-0.781259965124968	 0.00615234840019662	 0.624175468519948
 0.8456411083072967	 0.5075972571043798	-0.16503375570142392
-0.629348934402466	 0.493937927801936	 0.599954366802351
-0.4233264617837358	-0.6269523964759128	-0.6540071859748737
-0.29208387348662107	-0.049777390697719914	 0.9550964465562513
 0.955670518627889	 0.111525287903255	 0.272499486207952
-0.7413416403038439	 0.6202237508032159	-0.2563885163013289
-0.7388527992673939	 0.35856404068417597	 0.5705509352748209
 0.542364483611868	 0.751615237816447	-0.375386868708214
-0.05084153600057244	-0.8138303929091626	 0.5788741053065173
 0.22239099449163513	-0.1764987101933611	 0.9588485025639356
 0.8624006322033022	 0.09021543050034542	-0.4981228018019071
-0.0969290054989793	-0.3133697764967	-0.944671451390052
 0.782232039416335	 0.10919179390228	 0.613343450812808
-0.4590137871984128	-0.8159529182971786	-0.3514643342987848
-0.4902947804005789	-0.7290781702008599	-0.4775521438005639
-0.17011259510391802	-0.13678904720315102	 0.9758844509224772
 0.854753568705812	 0.519024892003529	 0.00308192560002096
-0.9144315057208214	-0.32877719930748617	 0.2360520590053751
-0.732616748269271	-0.220679307090744	-0.643873701572994
 0.371974888685129	-0.349882454086012	 0.859777267965626
-0.524582310713056	-0.826240677620563	-0.205279667605109
-0.186977295993595	 0.976942997766534	-0.103062456296469
-0.855336564113481	 0.0453957465007155	-0.516080021208134
 0.2380699573078269	 0.4214657927138568	 0.8750367312287696
-0.7100676839203467	-0.2854891360081799	 0.6436612754184436
-0.908186749492246	 0.200809344498286	-0.367249826696865
 0.24310709630870606	 0.5754964544206091	-0.7808346628279622
-0.17826369328957198	 0.8093888610526527	 0.5595638723672669
 0.204768280090239	 0.978772042353341	 0.0086741325995865
 0.382077314917254	 0.898357422040569	 0.216727634809787
-0.3761817095847232	 5.939592999758802E-4	-0.9265457185623734
-0.7017916677175331	 0.7112116987177681	 0.04082125340101981
-0.277860076602525	 0.840862322107641	-0.464482866304221
-0.3699652822925532	-0.34021283289315224	-0.8645119537825996
 0.0215374165008446	 0.979112134338396	-0.202177071107928
 0.327952399281882	 0.903876865750066	 0.274688615284825
-0.422520888095986	 0.827312232792141	-0.370176401996483
 0.540595745935042	 0.835970501154188	-0.0943904692061184
-0.3302628579914771	 0.9410559222757152	-0.07307664319811422
-0.563922121405084	 0.339847574603064	 0.752658931406786
 0.329381206201431	-0.813440677103533	-0.479397836702082
 0.19919465360765307	-0.9489869710364612	-0.24442835100939106
-0.09595051439681597	 0.9189649519695048	-0.3824877982873079
-0.40553304062338	-0.592079422434134	 0.696408580140149
-0.04327786000156358	-0.9478398863342455	-0.31579514991140983
-0.154058588604865	-0.373456998411793	-0.914765446228885
-0.504348834792407	 0.849989257887204	 0.152152930697709
 0.20408024649746187	 0.5640790189929856	 0.8001038140900505
 0.488755998388596	-0.42558844579007	-0.76157209038223
 0.7310215467936592	 0.5184136940955031	-0.4436831525961521
 0.5477865879891742	 0.35853084449291417	-0.7559004481850613
-0.5927471797900378	-0.7133880439880098	-0.3738024605937179
 0.22544621580630286	-0.8969582426250754	-0.38031554631063175
 0.635291501019464	 0.594554692118216	 0.4928584247151
-0.495734466595802	 0.402197712196594	-0.769730042893482
-0.06595373660051358	 0.9836301057076597	 0.16769591460130595
 0.06538909270045962	-0.9000060340063252	-0.4309447822030291
-0.4181868296276519	 0.7941179300525087	-0.4410175605291609
-0.731736726842362	-0.554224401632085	 0.396732498322968
 0.5951503111957529	-0.7282454696948029	 0.33978617239757497
 0.9747148316916803	-0.08443117699927931	-0.20688734429823405
 0.43347319070590984	-0.49312079070672377	-0.7542763941102847
-0.42819055818504215	-0.8706221336695873	 0.2422187982915391
 0.5687685076719597	 0.41709019917943785	 0.7088992526650517
 0.3570065678160858	-0.7232438606325867	-0.5911553337266358
-0.21234987729923702	-0.058089500799791416	 0.9754656013964972
-0.5243277721747539	-0.5168854274751129	-0.6766903591674179
 0.22903809591030794	 0.19765237480889494	 0.9531395959428948
-0.6418972120085269	-0.4976507310066109	-0.5833624252077488
 0.4617255166998159	-0.8357483440996668	-0.29721078809988194
 0.201314252102961	-0.38474968150566	 0.900799786013251
 0.24191062279116596	 0.9460642749654528	-0.21550322089213095
-0.9464121072956022	-0.11270519849947602	 0.30265766369859404
 0.4329852446080331	 0.030929177300573808	 0.9008702259167142
 0.37599190688141515	-0.5574211856724463	-0.7402105833634113
-0.564066760500112	-0.286098771100057	-0.774581295200153
-0.37411519851000513	-0.5360811793143371	 0.7567395770202381
 0.743697521036178	 0.209742141610203	-0.634761554630878
-0.984214775186543	-0.113470702498449	 0.135814859198143
-0.4621101559959501	-0.8809284639922802	-0.10207470329910602
-0.7666072403791572	 0.14632597569602201	 0.6252215989830011
 0.8867093793890172	 0.44635980959447114	-0.12045495789850803
-0.368719304887619	-0.90861319266949	 0.196132965893414
-0.042306252700076895	 0.8407925643015278	 0.5397018110009809
-0.0530626010018311	-0.253867092008761	-0.965782511733328
-0.5327731914793631	 0.23881436479074905	-0.8118623193685522
-0.9642291662921195	 0.2596733326978779	-0.05321536579956508
 0.12078124419582395	-0.2814124835902709	-0.9519553062670876
 0.454742396891115	 0.198146301396128	 0.868301442883034
-0.426817315595763	 0.651438541693533	 0.627259759193773
-0.2777731323040942	-0.45929973410676933	-0.8437332761124355
-0.8588329916157107	-0.3255163843059548	 0.3955312580072358
-0.31179738090378395	-0.13338353910161896	-0.9407397221114178
 0.456670211695912	 0.66361934119406	-0.592504588794697
 0.0593173477029774	 0.265109236113307	 0.962392095348306
 0.10185044900107604	-0.2658785799028101	 0.9586110091101314
 0.6229801056082768	-0.5829430987077447	 0.5216062995069298
 0.557009077493135	 0.788856189590278	 0.259705216996799
-0.978112979904298	-0.18900524070083	 0.0870173404003824
-0.14783290589760797	 0.4538182160926569	 0.8787459579857808
 0.852697584226242	-0.228509838807033	 0.469776631414457
 0.20278625490656504	-0.7325098639237151	-0.6498515477210391
 0.662672393713995	-0.257769837605444	 0.70315006181485
-0.5199539558986109	-0.16949970899954697	 0.8372082968977638
-0.760159143085131	-0.401761545992141	-0.510632683390012
-0.7168953922422237	 0.40232123662369584	-0.5693844212335358
 0.2879032300993689	 0.8663313629980997	 0.40814421419910485
-0.5516644152786233	 0.05201800949798433	 0.8324424902677435
-0.297135932609812	-0.382493412712631	-0.874876578028891
 0.02496476600108529	-0.05855575570254557	-0.9979719354433846
 0.518133873485371	-0.291466428991771	-0.804104850077296
 0.118672813301974	-0.86652130301441	-0.484827386608063
-0.421404520280308	 0.437432275379559	-0.794399921162877
 0.311787591406346	 0.154851781003152	-0.937448357919081
 0.17510379549686717	-0.6830930575877776	 0.7090292909873137
 0.7355015180174288	-0.6774619890160528	 0.009097825700215577
-0.5094145643102642	 0.7895432344159083	-0.34222548510689516
 0.337728141505286	-0.220150570203445	-0.915135743414322
 0.440285615895414	 0.754797753792137	-0.486239578094935
 0.494895449072239	-0.383498413278488	 0.77974833215626
-0.7996433099072497	 0.5986148123054269	 0.047232228500428186
-0.7818463624464368	 0.4632949684275169	-0.4172218088247799
 0.7972855140013952	-0.5934613924010381	 0.11017887680019303
-0.930081796676558	-0.332904654291609	 0.155313691096085
-0.6486667326870355	-0.7500205062850096	-0.12923122709741708
-0.4665684779111	 0.855413182820352	-0.224904740005351
-0.11578199470287903	-0.9265539236230382	 0.35789992500889906
 0.9300659942127297	 0.12011552850164398	-0.34720239950475196
-0.7522208239172893	 0.6366138777146323	-0.16996059180390607
 0.9722875500399567	 0.06688817190274884	-0.22401538450920616
-0.493681772102404	 0.101856805900496	-0.863657049404206
-0.9227076450011664	-0.24911637440031512	-0.2941965905003721
 0.6328383940966579	-0.7552730485960107	-0.17052327999909897
 0.0131097364996491	 0.422064483888703	 0.906471017875736
-0.04841559260033618	-0.4641033040032228	-0.8844569258061415
-0.8267293059107713	-0.4397472424057292	-0.35091454450457216
-0.9941536373592255	-0.03914927069839432	 0.10062743129587304
-0.38367335909034483	 0.9216149315768075	 0.058486506298528175
 0.7976656817062272	-9.654130000075373E-5	-0.6030998681047091
-0.2352280922086919	-0.8541629630315627	 0.4637600427171368
 0.457310211681904	 0.282494689188821	 0.843246180466632
 0.22147195870613406	-0.7262229280201151	 0.6508075217180261
-0.852390921225035	-0.466758556713709	 0.235724769906923
 0.689824896794558	 0.225782717398219	 0.687869010994574
 0.42524376840259087	 0.6190615545037719	-0.6602503534040229
 0.6052553963863282	-0.6990610009842093	-0.38076189679139916
 0.7117520331904839	 0.6893410572907829	-0.13497388629819498
-0.5720377874796112	-0.7799751782721993	-0.2537941901909541
-0.708428600802529	 0.1399309406005	 0.691771818902469
-0.697694726527322	-0.712150664627889	 0.0778684753030494
 0.5821712728766623	 0.7128166695714253	 0.39111252168432115
 0.889373398183974	-0.121679927197807	-0.440691449792059
-5.578669999958322E-4	-0.9870078808926255	 0.16067088049879907
-0.31298608930776084	 0.5420789542134408	-0.7798654469193367
 0.505263729307228	 0.0717343155010262	-0.859978343812303
-0.8379670348249147	 0.22615519650672394	-0.4966538791147669
 0.7401999486214538	 0.25027396840725397	 0.6240728938180878
-0.6872047036014299	-0.7082839556014738	 0.16150397390033597
 0.7032988538385281	-0.6396500169350411	 0.31019119591699307
 0.381008953803968	 0.414363978204316	 0.826519613008608
-0.801841737989464	 0.199737045497376	-0.563165108892601
 0.5002396150290099	 0.4687684951271849	 0.7280222699422199
 0.42609637859456095	 0.5168406409934029	 0.7425076618905218
 0.7571558035368928	 0.6299108322306929	-0.17299546990842898
-0.6783606273985588	-0.2705338392994249	-0.6831092891985489
-0.8821444984150753	 0.4701420264080341	-0.028063480200479607
-0.443588868298137	 0.550305095897689	-0.70738477319703
-0.802887853195196	 0.59497193539644	-0.0371415034997778
-0.48731817280884077	-0.41263459440748584	-0.7695802037139616
 0.442556907898526	 0.796564043297347	 0.411860544598628
 0.893411836200192	 0.319583468800069	 0.315724084300068
 0.6756418831321949	-0.7371263541351248	-0.012360574300588997
 0.10618913980189804	 0.4429108206079152	-0.8902549475159104
 0.3944714415897391	 0.0010999013999713901	-0.9189075426760972
-0.34246578680088113	-0.47523773240122313	 0.8104728759020852
-0.5348302413140719	-0.3761880405098979	 0.7565970996199067
-0.978583318082913	-0.189784054196686	-0.0797289303986078
-0.6221978083870282	-0.22576898589529312	 0.7495987274843722
 0.3600766726932382	-0.9131263109828525	-0.19116780579641007
-0.234125541395335	 0.763729751084783	 0.601582993588014
 0.7999459918781562	-0.5685867473844741	 0.19182158579476205
-0.23943084608912005	-0.18085846579178202	-0.9539198526566532
 0.30180633749062497	 0.14524668049548797	 0.9422400630707318
-0.8225731059446048	-0.5334395567289268	 0.19701706701068394
 0.45453549688828687	-0.7255266032813039	 0.5167287779866839
-0.159465740995658	 0.102369080697212	-0.981881484073263
 0.07777851599834977	 0.37321992289208183	-0.9244768204803856
-0.6527845918077383	-0.6845125020081143	 0.3245225898038472
 0.02146583670065841	 0.6771581764207703	 0.7355243177225602
 0.3832024891073561	-0.8650442869166062	-0.3238120350062161
 0.4696993233065051	 0.8731333163120912	-0.13046362570180703
-0.26546175310942893	-0.9618160267341648	-0.06663323760236689
-0.03532381240080219	-0.20799729760472394	 0.9774913567221988
 0.288556096595918	-0.780573091688959	 0.554473649192157
 0.08048578859902328	-0.9803528072881038	 0.18008445539781495
-0.5206118389173942	-0.024520204800819206	 0.8534413118285142
-0.9431155554262788	 0.25187680710701793	-0.21700489200604697
 0.6699755438385449	 0.4458704961256519	-0.5935758345341489
-0.5759960239277988	 0.40796409391968885	 0.7083741091341876
 0.780441825597442	 0.553941573898184	-0.28992980109905
 0.26964778289130903	 0.9615961007690083	-0.05121535089834931
-0.9569294678693204	 0.25693505259176214	-0.13516794099566606
 0.696289831697286	-0.602338230497652	 0.390344881298478
-0.014968023299988692	 0.0075154243999943065	-0.9998597284992425
 0.5578568272775694	-0.6033129671757423	 0.5699203662770843
 0.7696376156322707	 0.6384574880267699	-0.005475087800229569
 0.12343115500019197	-0.7296917313011319	-0.6725434761010439
 0.0346452846993861	-0.478326996691524	-0.877498141584451
-0.8205739477066514	-0.27404513600222113	-0.5015552410040652
 0.5172879141829752	 0.7274588367760582	-0.4507958014851641
-0.632435736205657	 0.682845020306108	 0.365715350803271
-0.380365926577094	 0.473037064271514	 0.794706044852143
 0.1719164778998669	 0.7438379584994236	-0.6458713618994996
-0.488150617666292	 0.768205443246954	-0.414209332871398
-0.364449554698265	-0.748909309596434	-0.553454034297365
-0.902999355426481	 0.241370784807078	 0.355432565110423
-0.7272515775903989	 0.5071045118933049	-0.4625474644938929
 0.21554669609023994	-0.6235251685717659	 0.7515024856659708
 0.9705101163187014	 0.14948245020288106	-0.18911666030364407
 0.4869430349989289	-0.6230186377986299	 0.6121554194986529
-0.8718918274938426	 0.4698924956966818	 0.13786110269902593
 0.4190868545077681	 0.8648385567160293	 0.27644254230512405
-0.706877082595544	 0.705981319095549	-0.0437626231997241
-0.195856518095937	 0.634610237486834	-0.747602883084489
-0.4442630718991529	-0.7110630319986448	-0.5449951260989608
 0.789030415180905	-0.613668649385149	 0.0290136636992979
-0.6017959903010113	 0.6756135880011354	-0.42589654350071615
 0.13887648589342702	-0.5553702880737161	-0.8199250970611952
-0.5845784912039778	-0.7237945170049258	 0.3665917140024949
-0.19967532559329695	 0.09436574319683237	 0.9753075775672618
 0.22681756480589094	-0.14321732670371998	-0.9633496715250208
-0.004068246999890239	 0.003532677399904689	 0.9999854846730207
-0.28988000109473094	 0.7122425360870549	 0.6392809669883809
 0.6883813395161171	 0.3071858495071921	 0.6570905457153841
 0.08159435600178545	 0.7177937547157067	 0.6914582321151307
-0.5159977813109209	 0.32226611030682095	-0.7936566284167977
-0.40304778308066885	-0.2591509857875709	 0.8777204857579025
-0.07378206049659648	-0.7170659415669219	 0.6930892027680279
-0.394165429584841	-0.530144871079611	-0.750719674571128
 0.5697668608867071	 0.4250338835900841	-0.7033576060835901
-0.4288714536013309	 0.8837670371027427	 0.18714994100058097
-0.8445572038121166	-0.36800358620527984	-0.38896849490557983
 0.09059397069913358	-0.12355710429881797	 0.9881934903905488
 0.963033820499971	-0.125908803999996	 0.238144564599993
 0.812262930605586	-0.525190119903612	-0.253779962801745
 0.347365136201101	 0.440259425201396	-0.827954769702625
 0.8254530083343488	-0.17662474880734996	 0.5361259452223089
-0.5364131572976919	-0.7777117324966538	 0.32775812089858997
 0.8632648646084876	 0.3081263380030299	 0.3997898615039308
-0.4585505638088437	 0.8883097720171325	 0.025241421700486783
 0.25179629040290913	 0.3452965808039892	 0.9040845643104455
 0.5660788589974558	 0.6436291523971067	 0.5150691599976848
-0.18465904609331993	-0.7713947065720966	 0.6089755687779718
 0.6827808841146727	-0.5602013641120378	 0.4690252615100788
-0.6758027589859052	 0.7078143594852372	 0.20564402119571104
 0.184482044901018	 0.63056548800348	 0.75389226050416
-0.9724078096594422	 0.03388065939858691	 0.23081410839037306
 0.35952110338817717	 0.8758904795711965	-0.32180808568941716
 0.7832651760041618	 0.14106283160074998	-0.6054724945032169
-0.5876954433139978	 0.8083703559192537	 0.03393278030080819
-0.7188767468850414	-0.6239690419870163	-0.30639656889362415
-0.898203584641745	 0.399063934618547	 0.184332028208567
 0.37413320859726784	 0.08973494499934466	 0.9230232834932596
 0.9050029996206888	-0.32053287050732693	-0.27969313470639395
 0.3642050417915382	 0.8325560893806553	 0.41737877949030217
 0.6863556116078579	 0.14144606790161898	 0.7133785701081679
-0.7590383591047682	 0.16428644080103202	-0.6299767732039571
-0.281219179407986	 0.211076300705994	-0.936142386826583
 0.7414173159408668	-0.5341389975294418	-0.4061968672223898
 0.7374185962071531	 0.6262818243060752	 0.25295234830245406
 0.555551665690589	 0.491616275891672	 0.67057869338864
-0.47080546110398214	-0.4885140149041321	-0.7346402351062131
 0.5691707005314472	-0.4873385095269262	 0.6622279749365894
 0.25084116330893397	-0.8237910054293408	-0.5083769174181069
 0.5504554279955823	 0.8314234860933275	 0.07572191599939235
 0.7223040509114084	-0.23176162890366112	 0.6515853017102914
 0.8881070264749328	 0.4569129347871039	 0.049964783098589684
-0.6944942359607102	-0.6223713270647903	 0.3610148022795761
 0.15388357300289293	 0.9761229388183496	 0.15330966790288195
-0.023334111300407696	-0.7640808048133497	 0.6446984124112639
-0.624325914166959	-0.753682768060113	 0.205376332689131
-0.08480211159900546	-0.14013695529835696	 0.9864939105884316
-0.32516689089030615	-0.26893792199198213	 0.9066084530729714
 0.733049519688431	-0.647049311689788	-0.209679731796691
-0.6671778187971305	 0.07282499629968675	-0.7413300735968115
-0.7366732727888021	 0.4254769113935321	 0.5256252343920101
 0.9282678694413076	 0.20224226700899992	-0.3121166897138889
 0.6041029815096323	-0.4142708379066052	 0.6807637333108544
 0.7582660174975282	 0.5382995769982452	-0.36778555179880107
-0.8372386343773617	 0.5223706811858748	-0.1617415856956269
 0.6217740517036341	 0.4395601799025691	 0.6482159184037891
-0.4897795188102191	 0.5860904202122291	-0.6454564604134682
 0.230494315608159	 0.957191936933884	 0.175088452906198
 0.452107918710199	-0.32936093890743	 0.8289268977187
-0.6127664113834989	 0.40527492378908586	-0.6784316923817308
-0.4106086512996501	 0.22716962919980604	-0.8830597346992473
-0.9056924759256513	-0.4006225640113471	-0.13864595290392703
-0.9019294630089553	 0.16682881620165604	 0.39836087890395505
-0.17048779630761196	-0.5606425748250309	-0.8103171074361778
-0.35147761190087295	 0.6558122783016279	 0.6681120744016589
 0.586580950684645	-0.789528280679333	 0.180465737195276
-0.131968786002275	-0.446413235107696	-0.885042068515258
 0.8739031087560972	-0.32886919068347803	-0.35796426068201703
 0.31256295939993606	-0.36188686869992603	-0.8782609467998203
 0.20935910820617	-0.508156340914976	 0.835431563324621
 0.011455905899735998	-0.8160665471811948	-0.5778444018866838
 0.7468904929900073	-0.6588870772911843	 0.08956791199880164
-0.432580383607855	 0.116123059902109	 0.894085928016235
-0.7789363309668802	-0.24956737868938805	-0.5753036726755381
 0.5187049026229619	-0.8407341207372178	 0.15527833790687398
-0.474486872611138	-0.650550763615271	-0.59299739601392
 0.05984700809877117	-0.13308870619726695	-0.9892955735796876
-0.6236419088900842	-0.06647925489894303	-0.7788782177876163
-0.5994003130058118	 0.2016979069019559	 0.7746206937075106
-0.061475221298390614	 0.15132474609603802	 0.9865706352741722
-0.342840201202936	 0.470005085504025	-0.813360815406966
-0.760657233972596	 0.505091876781803	 0.407777841985309
-0.8424872962015	-0.537905638400958	 0.0295411563000526
-0.9752082347097798	 0.10883202390109097	 0.19267716400193194
-0.253564583898858	-0.967204125195645	 0.014872188699933
-0.7835756472045702	-0.4992511535029121	 0.36980736990215707
 0.7734278701622	 0.0237486737988393	 0.633439286869041
-0.484124337508642	-0.826794264114758	 0.286417301605113
 0.9528583643820427	 0.018118045199658598	 0.30287402309429196
 0.6079720360911651	-0.6567213724904561	-0.4461917101935161
 0.954656941638404	 0.187559876607545	 0.231195623809301
 0.14032175059905794	 0.5227576666964908	 0.8408532738943557
 0.134424618202737	 0.510195416010386	-0.849488469317293
 0.866882691251262	 0.251500962114872	-0.430420336025452
-0.9919600387706166	-0.11506990989659094	 0.05267064949843978
-0.306007814297309	 0.0376507972996688	-0.951284203091633
-0.2898825428917081	 0.4248164709878482	-0.8576124283754684
 0.17256128409670302	-0.9294282896822432	-0.32616814309376907
-0.5907867971258737	-0.8022972065351367	-0.08538239120373926
-0.7808817961283057	-0.13670230030495495	 0.6095376129220947
 0.9164008128080477	-0.3749154771032929	-0.14017109300123098
 0.4168883008161329	 0.8388879239324648	 0.3499588486135429
-0.10765707840078596	 0.30526883060222887	 0.9461611356069085
-0.40961374291069613	 0.8724368823227813	 0.26659044990696107
-0.8580649062705633	-0.05439161009813402	 0.5106526895824812
 0.30172292140224294	 0.6885335882051179	-0.6594579415049009
 0.19268568029100105	 0.9784138223543042	-0.07469016559651172
-0.04020691580068338	 0.6309832449107247	 0.7747538632131686
-0.296797729606534	-0.543631130711967	 0.785096364417283
 0.30294542940738306	 0.06399389710155941	 0.9508569019231712
 0.5256792811111428	-0.7090929937150308	 0.46994512410996175
-0.44622098161172113	-0.03258582270085591	 0.8943293575234912
-0.296443126498556	 0.708677297796549	-0.640232739196882
 0.29858213620006313	-0.5599849123001173	-0.7728296099001624
-0.8427409698146934	-0.5354697446093363	-0.05531555300096453
-0.7353719378816083	 0.3252767297918651	-0.5944940386851311
-0.04245383900131262	 0.9890818607305802	-0.14111961000436302
-0.057786732799768786	 0.9730430480961068	-0.22326647769910696
 0.019779366500343905	-0.6631187182115281	-0.7482528598130082
 0.011516291900486099	-0.9271971075391388	-0.37439671311580397
 0.25708535000183197	 0.9570907981068197	-0.13373229600095296
 0.3044942839016991	 0.6907352666038551	 0.6558719559036601
-0.6595563424963147	-0.5886662518967107	-0.4673943462973878
 0.5190872608798307	 0.22790213809114487	 0.8237772945679914
-0.696086088830995	 0.638004152528409	 0.329264116314661
-0.559791360293098	 0.804937089090076	 0.196748355897574
 0.6998445280734789	-0.6987402074735208	 0.14825572159438197
-0.800245582686979	 0.58690249149045	-0.123095381197997
-0.15206242220542893	-0.9693696579346074	-0.19287168280688585
-0.6464809706885946	 0.24561608429566684	-0.7223123241872565
-0.7065536344098811	 0.6957544381097301	-0.12925835970180802
-0.642628575115852	 0.587989412014504	 0.491219875212117
 0.633516572516601	 0.630624708916525	-0.448295916611747
-0.8866148704987368	-0.3103949521995579	-0.3428834277995109
 0.9984506770603444	-0.04230435999831982	 0.036146737098564315
 0.33352077837910904	-0.6581844639587721	 0.6749497031577221
 0.8112517231434206	 0.38949051702084686	-0.4360823074233398
 0.6399982484146441	-0.4790510597109611	-0.6007597891137461
-0.48058987352316035	 0.19025871180916915	-0.8560578228412545
-0.787456593491446	 0.362420626496063	 0.498561333094584
 0.0843760525997583	 0.961345415597247	-0.262098595299249
 0.005360687999820019	 0.9589282549678058	-0.2835980691904789
-0.232865253492601	 0.911450926871042	-0.339162175989224
-0.7894578058318522	 0.28028943711130905	-0.5460716109220322
-0.7736043771091372	-0.5746736076067871	-0.2669953416031531
 0.320906554500807	 0.572085287101438	-0.754809517401898
-0.8249012789041533	 0.5077403864025563	-0.2484704813012511
-0.592198980172913	-0.16003916899268	 0.789739091263877
-0.655745281066973	 0.442485273977714	-0.611722901869191
-0.1512682769989549	 0.4015684460972247	-0.9032500713937575
 0.05880146859941859	 0.5459506222946019	 0.8357513417917368
 0.6687600796055732	 0.13853739690115502	-0.7304569430060881
 0.869496595149941	-0.493720555228358	-0.0146861965008435
-0.6791401454823043	-0.10478158079727004	-0.7264912133810704
-0.4428850071969181	 0.8088125412943721	 0.38687871929730805
 0.788960947398597	 0.466263815199171	-0.400173310099289
-0.636973250567109	 0.613256110668333	-0.46709958337588
 0.336944365723699	 0.769673158654134	 0.542283803238141
-0.89512717282767	-0.401983073012426	 0.192761390005959
 0.6644461021092131	-0.031526927500437105	 0.7466708982103532
 0.6782091333912547	-0.008456671999890947	-0.7348202882905247
-0.21826402109025306	 0.9389528070580693	-0.26594819648812407
-0.12113363209983806	 0.4740067243993682	-0.8721492236988363
 0.395823242905752	 0.904057219113137	-0.161259123602343
 0.6722974944083805	-0.7047011843087845	-0.22674284960282715
-0.5925983670605699	 0.7755390774483978	-0.21763803598551895
 0.6976119104957131	 0.5871674004963922	-0.4105752867974771
-0.24691528388569495	 0.6737727250609638	-0.6964647568596488
-0.669482849809704	 0.620118958508988	 0.408956221505928
 0.53895575798521	-0.840288979076942	-0.0586610822983903
 0.9577291002436152	-0.28486333411297304	-0.04009802270182611
-0.988450301234882	 0.0358385837012647	 0.147246724605196
 0.03469170820114251	-0.5328896246175501	 0.8454733191278442
-0.6505179532025701	 0.7594783690030003	-0.004358850500017221
 0.22321032319257988	 0.9286271223691286	-0.2963592738901479
-0.30625217598946397	 0.8742971824699218	 0.37658205138704487
 0.765223944592128	 0.0662839009993181	-0.640342688793412
 0.896184728021508	-0.385323357509248	-0.219951911605279
-0.8281074462019025	 0.22656932490052084	 0.5127420390011777
-0.6994842592908289	 0.6813124384910669	-0.21572003189717195
-0.5362892545874169	-0.6626167376844528	 0.5228124848877329
-0.0027619569999029186	 0.9941319162650556	 0.10813928359619895
-0.5485729816798469	 0.26921913159010996	 0.7915735865709198
-0.09979492520280334	 0.8033341407225664	 0.5871075125164922
-0.7322455067568626	-0.6509827140616496	 0.2000950369882119
 0.9664391240135906	-0.015837065500222694	-0.2564071117036059
 0.4876469761887569	 0.8723924117798858	 0.03364381789922429
-0.49904744310542887	-0.3330780034036229	-0.8000066832087028
-0.7543751344212187	-0.5723999506160999	 0.3213665401090389
-0.8307108141760315	 0.4164457702879843	-0.36944886468934024
 0.22282923980202787	 0.7243863014065915	 0.6523891601059365
-0.45303310677521325	 0.4770376447739002	 0.7531242192587944
 0.379642256706984	-0.47511756190874	 0.793810468114602
-0.18929101589335506	 0.31730299428886105	 0.9292404000673802
 0.14568941150334105	 0.23480201980538512	 0.9610632689220424
-0.00431396500015771	 0.558772699820427	-0.829309628330317
-0.669803163800392	-0.355270998800208	 0.652032391200382
-0.387471874614374	 0.855164875131724	 0.344323369412774
-0.22230294130587389	 0.1578258001041699	-0.9621187136254216
 0.4942300162910478	 0.2207750231960009	-0.8408299947847697
-0.6942582135106941	-0.07656013650117931	 0.7156424236110241
-0.06406872300136782	 0.8832994044188572	 0.4644107674099151
-0.9471768264376902	 0.25584151461018106	 0.19339384390769607
-0.19418495240335007	-0.4913761517084782	-0.8490239583146494
-0.275584408799606	 0.656394631799062	 0.702281511198996
-0.8090545227064853	-0.42534453970340913	 0.4056017774032511
 0.138552212596618	-0.191216088995332	 0.97171996567628
-0.8991516394264545	-0.15871123160467007	-0.40784442411199917
 0.951529931434232	 0.0525133909018892	-0.303039821410902
-0.723539273309209	 0.599563606507631	-0.342073678804354
-0.134985936102731	-0.545945668811047	 0.826874914216732
 0.697341886197094	-0.441732214398159	 0.564435066697648
 0.21797496459456914	 0.9715837315757917	 0.09226032379770126
 0.36520669188678	-0.748254189972914	 0.553840897179951
 0.4312815897791329	 0.07477599249638199	-0.8991133083564968
-0.8643251812963709	-0.13523312809943197	-0.4844109639979659
 0.9123509536749272	-0.23125993079364507	 0.33783809989071606
 0.418284870606447	 0.908307218613999	 0.00397034450006119
 0.468187660103511	-0.835431716906265	 0.287843987802159
-0.263622355497129	-0.767554365391641	 0.584263253893637
-0.7035080511707521	-0.7106618523704541	-0.006012779999750022
 0.42893065049416096	-0.9019085956877227	 0.050787617499308595
-0.82731100692194	 0.371071503409841	 0.421737403111185
 0.06513829009869773	-0.9928790999801494	 0.09974014229800594
 0.4172469386237619	-0.4038497117229989	 0.8141316862463648
-0.8230360086901254	-0.5212564072937462	-0.2256180095972931
 0.7531308142869487	-0.6353648581889899	 0.17060326359704397
 0.448958038603719	 0.293785946902433	-0.84387587770699
 0.7710210240762047	 0.4221514052869718	 0.47677538888528576
 0.8295197617198483	 0.21493354430514308	 0.5154614791123342
 0.01536280040007979	 0.8722660064045304	 0.4887903420025387
 0.2958813905946889	-0.4923091751911628	 0.8185877342853056
-0.8959891162986978	 0.31718421209953895	 0.31080167159954797
 0.6393712777978151	-0.6271510821978561	 0.4448436682984791
 0.143858211695422	 0.936299052670206	-0.320388668489805
-0.6317339474099891	 0.32696195630517005	-0.7028570970111131
 0.9334718059264292	-0.13545593930383504	 0.3320874524094021
-0.5086314153157441	 0.4094759297126751	 0.7573793939234442
 0.9009038302191972	 0.36138620620770107	-0.24035868750512204
-0.11023868489759903	-0.9936155984783572	-0.023989056099477508
 0.18878218140245395	 0.4456856540057929	-0.8750574757113728
-0.6084500785158631	 0.5595664686145891	 0.5627378334146711
 0.4085890223870238	-0.7927739142748227	-0.45228810688563575
 0.007120173899850072	 0.7299927747846281	-0.6834177725856091
-0.37868410961818505	-0.2567596418123301	-0.8891978584427013
-0.30180291010843513	 0.9038279654252614	-0.3033315222084781
-0.5266572059971758	-0.8405596400954927	-0.12685298109931994
 0.08444804939559146	-0.8390134064562007	 0.5375174701719397
-0.5833049494212512	-0.8081223883294414	 0.08181406640298064
-0.38923598801481113	-0.7030100455267511	 0.5952077129226481
 0.19039812469966194	-0.9814826309982568	-0.020985689399962697
-0.4453381089005968	 0.8889926603011915	 0.10661153170014295
-0.2413881916047739	 0.9697792140191795	 0.03549671830070199
-0.5526638041757103	-0.5567811349755292	 0.6201269928727452
 0.7384841981569724	-0.14557867739151809	-0.6583676311616404
-0.9692733447349906	-0.11196303060404195	 0.2190284524079069
 0.30193953551432606	 0.9141284128433732	-0.27055824091283703
 0.992106252537383	-0.0299965515011303	 0.121759560504588
-0.6912724555090308	 0.7118852460092998	 0.12394268340161897
-0.31135585268457294	-0.4108844535796409	 0.8568730937575427
 0.110460517393953	 0.948528318748078	 0.296803811683753
-0.7719867301279012	-0.32712073121182306	-0.5450032254196971
-0.9992030213839405	 0.034809585499440514	-0.019534963899686012
-0.9593024060131862	 0.25951426980356707	 0.11131593590153002
 0.11957775389496303	-0.03357062589858581	 0.9922571107582012
 0.8100387904722065	-0.03496782539880018	 0.5853327336799166
 0.10929801199739203	-0.9355104347776763	 0.33596751479198306
-0.5259155050073531	-0.7502513893104902	-0.4006691084056021
-0.5443891047950917	 0.44271056099600875	-0.7124941134935767
-0.7362040704793471	 0.28541196769199306	 0.6136314653827861
-0.253633541307458	 0.96617569922841	-0.0466320163013712
-0.08582469909519462	 0.9185333758485702	 0.3859152218783921
-0.2598503918974269	-0.6974319334930958	-0.6678820793933878
-0.653759749315379	 0.751440077117677	-0.0890842336020956
 0.2805965380929351	-0.7304073008816093	-0.6227124196843212
 0.23220315800835406	-0.3598766660129481	-0.9036428933325112
-0.20928466570589108	 0.3914647878110182	 0.8960777023252214
-0.358132383493697	-0.336483669094078	 0.870930500284673
-0.24817533859027993	 0.9108976472643248	 0.32965812218708895
 0.935868194077971	-0.300440436792928	 0.184082229595667
-0.7989075553686454	-0.5936429690767017	-0.09661647499620803
 0.558905958184841	-0.828968909277517	 0.0208489173994345
-0.435040595791846	-0.642551993187956	 0.630766689088177
 0.4787478395229629	-0.7691619048368927	-0.4233089537203039
 0.5689792694869087	 0.08548528889803304	 0.8178966048811814
-0.913229689104928	 0.123880177300668	-0.388156201302094
-0.70321391211699	-0.534546149912915	 0.468775647211326
 0.7034955148171063	-0.6498660309158012	-0.2876946341069951
-0.3409247632073679	-0.9348918565202048	-0.09872954190213368
 0.576796766678822	 0.567964571979146	-0.587130083478442
 0.9610662396706394	 0.23053244619295712	-0.15233671329534607
-0.8920454106124522	-0.32331762070451303	 0.31578584760440803
-0.2897765633043509	-0.8090810679121467	 0.5112899069076758
-0.5629473045909993	 0.5513991719911844	-0.6156697859901564
 0.7436969098901781	-0.14789087049804703	 0.6519533699913901
-0.5949365032838873	 0.8022556942782724	-0.04935947789866322
 0.079131777700097	-0.61184746480075	-0.787007523200965
-0.15612516030606102	-0.8587719147333392	 0.48799152941894514
 0.0343444650992472	-0.268473054094115	-0.962674751378899
 0.927509325401154	-0.0463825796000577	 0.370911185600462
-0.137455740801124	 0.96004541230785	-0.243759565201993
 0.5365569748889372	-0.15052384729689602	-0.8303307678828802
 0.9032011162143562	 0.17169151990272905	 0.39338246740625304
 0.003767665400125451	-0.8514086106283493	 0.5244894493174641
-0.2872001204928029	-0.6341705508841078	-0.7178745037820098
-0.369501288579659	-0.599240242067012	-0.710197106460904
 0.9031330637797857	-0.3508995471921459	 0.24742711429446196
-0.6431064836657078	-0.5672270433697539	 0.5144584841725679
-0.4124764301934988	 0.5971598678905877	 0.6879413395891568
 0.6985070957858701	 0.49339434269001914	-0.5183144409895151
 0.7278264016123946	-0.3658513232062308	 0.5800185673098778
 0.8562654268795605	-0.5076548895878823	-0.09537311889772347
 0.116457320698928	-0.790687317092721	 0.601041811394467
-0.09913325590226714	-0.4807733938109952	 0.8712230147199244
 0.512456249996172	 0.39225816699707	 0.763886197194294
-0.519304111835106	 0.777758504552578	 0.35413972952394
 0.931784279002568	 0.183177738800505	 0.313407041100864
-0.13053340559958	-0.0656752998997889	 0.98926628619682
 0.7361260213162764	 0.5562100344122982	 0.38567976140852817
-0.7373655576989538	-0.6377098760990949	-0.22275131479968394
-0.12923436300319305	 0.38066737210940615	 0.9156368446226254
-0.437179441506568	 0.0510711742007673	-0.897923087513491
 0.624086067711744	-0.201274296603788	 0.754986912214207
-0.0347212513990893	 0.0743691496980493	 0.996626140673859
 0.09658174190529373	 0.8735036458478774	-0.4771408050261527
-0.392509570515549	 0.873205600434591	-0.288874049411443
 0.6369389419694661	 0.7332621096648481	 0.23798206388859106
 0.8292867476821697	 0.15603173609664495	-0.5365981619884628
-0.8679765272049917	 0.3072767368017669	 0.3901253071022439
-0.67441164190234	-0.0168556360000585	-0.738163142402561
-0.8126961175170496	 0.44579925920935276	 0.3752173251078718
 0.4909897894909099	 0.8041803378851118	-0.33499703099379796
 0.0374431724015366	 0.826477935033916	 0.561722557623052
 0.413503432010251	-0.638006678315817	 0.649586322316104
 0.33795373901691006	-0.08096335540405111	 0.9376738267469172
 0.6591567111180521	 0.6530151534178841	-0.37293919021021404
 0.604853916097648	 0.142082624499448	-0.783558720196954
-0.4848387108927522	-0.10185396759847704	 0.8686525160870153
-0.648076081901266	-0.290470985100567	 0.704005681001375
-0.781960105891984	-0.168928492798268	-0.600001297593849
-0.6272240405072382	-0.42099926390485803	 0.6552477568075622
-0.3092405708957391	-0.04767733129934302	-0.9497879454869125
-0.7485974432250372	 0.6574457889219882	 0.08583066250287062
-0.8764893280920387	-0.3966102088963973	 0.2728860566975212
-0.2639814872103529	-0.4811708341188698	 0.8359356451327826
 0.820059772410031	 0.366047287404478	 0.439899253305381
-0.8042009973988822	-0.5236422315992721	 0.28117533509960907
-0.07687672009980273	 0.7153698981981643	-0.6945040522982173
-0.6650173888325961	 0.20787269861018906	 0.7173150031351591
 0.5887281770994692	 0.5798841062994772	 0.5631461237994922
-0.5146993070110213	-0.7541021845161475	 0.40793935660873526
-0.18822238979810096	-0.9810958795901018	-0.04498007369954619
 0.25746494400711206	-0.21801880360602205	-0.9413711297260042
 0.23587473110550594	-0.8271114459193067	 0.5101468095119079
-0.12786343600653896	 0.7542655659385727	-0.6439987560329339
-0.31940932261263605	-0.9452625693373953	 0.06675597080264091
 0.8276679012213317	 0.13322864550343394	 0.5451751767140508
 0.455057840086695	 0.865050203774708	-0.211211995693825
-0.36837607199911304	 0.08864834409978661	-0.9254407277977722
 0.8077889996108102	 0.4361765842058371	 0.3965184983053061
-0.9549711023382738	-0.10421017960417699	-0.27779566621113394
 0.163347188808462	 0.957080250849583	-0.239405700312403
-0.07405695360125267	-0.2788555976047169	 0.9574733016161956
-0.11171032759651206	-0.3483122887891232	 0.9306983142709364
-0.00473482390008873	 0.495326393609283	 0.86869404581628
-0.6859339700266185	 0.4356912706169076	 0.5828101796226166
-0.6374242433995136	-0.7607430473994197	 0.12231250859990694
 0.24543609569847494	 0.6634088036958767	 0.7068591670956068
 0.9065550414948782	-0.2546407540985611	-0.33662448379809806
 0.6785140855650839	 0.35476666288174397	-0.6432412071668989
-0.40389423148595127	 0.03824711639866973	 0.9140058029682085
 0.900597033506629	 0.247734478101823	 0.357145084802629
-0.6180858579229503	 0.023196551000861314	-0.7857682815291765
 0.9785123291824178	-0.20541652349630898	-0.017823397899679697
-0.6938868402667476	 0.47660696767715977	-0.5397840783741328
-0.4436604054072829	-0.037387888300613695	-0.8954147589146978
-0.227070279489926	 0.463221733079448	 0.856659041961993
 0.09344192939904318	-0.41799619149571987	-0.9036303390907467
 0.09277100149646954	 0.9723170132629975	 0.21446017579183807
-0.16219863060116	 0.696772741604982	-0.698712638204996
-0.9276043721884818	-0.32924005689591196	-0.17649678079780798
 0.7816286734978807	-0.33908985509908085	 0.5235214292985798
 0.10120499930109104	-0.6729996559072563	-0.7326861615079003
-0.88084025975761	 0.392352867325661	 0.264914447117326
-0.809014684783887	 0.120701198197596	-0.575262079888543
 0.9272961723622523	 0.25616368368957204	 0.27295050078888905
-0.4748358407743818	 0.5420631363707548	 0.6933242246625937
-0.6678019428900231	-0.6022731686910021	 0.4373872372934651
-0.3955017213093141	-0.9179324246216182	 0.03128022170073671
-0.204940168802338	 0.244542041602789	-0.94773346311081
-0.4797697837842631	-0.5775419152810561	 0.6605045727783351
-0.9940615404508012	 0.033979506098318304	-0.10337817449488403
 0.06875061110106849	 0.8315608162129238	-0.5511623739085659
-0.8043627929896837	 0.38868645809501484	-0.44935880379423676
 0.961129819784438	 0.257206698295836	 0.100370233998375
-0.19680991680340088	-0.34856888210602277	 0.9163872495158344
 0.22197596230153005	 0.4943337422034071	 0.8404527491057933
 0.6985261040158023	 0.5442999508123132	 0.46454154341050924
-0.8938112760788832	 0.09295176139780403	 0.4387041973896351
 0.22961050469093505	 0.8327872016671222	-0.5037305756801131
-0.6764486944785871	 0.36639852858840205	-0.6388812737797761
 0.0874133784983399	-0.988006438981236	-0.127287775497583
-0.6586950875182679	-0.6696980855185729	-0.3429653859095109
 0.1708012578976859	 0.9564542689870436	 0.23669001169679388
-0.6248310510184212	-0.2379848872070161	-0.7436056422219234
-0.723710852525375	-0.143440603505029	 0.675031403123668
 0.4841594916021097	-0.2516722466010968	 0.8380039779036514
-0.7194866701782131	-0.36292167528901004	 0.5921374747820691
 0.09502066710072483	-0.9612343943073323	 0.25884263950197506
 0.818140648896009	 0.0755679116996313	-0.570031024897219
 0.6188165614101111	 0.027129032000443306	 0.7850669264128283
 0.8790275720036708	-0.4529770508018919	 0.14873573580062097
 0.6074236919179352	 0.5118878869151142	 0.6074596692179363
-0.015569978800826292	-0.8920617485473435	-0.4516452286239698
 0.1815379076011801	-0.6780057470044084	-0.7122865962046314
-0.08390817359678264	-0.1826266833929971	-0.9795952801624385
-0.23326313879563307	-0.8781397421835612	-0.4176827758921811
 0.32081204609020414	-0.9158317581720354	 0.24151981659262511
 0.436437276116613	-0.686418359926129	 0.581680616122142
 0.9114814118177105	-0.40248248130782016	 0.08490870480164985
-0.771882427012327	-0.589089513809408	 0.239104712603819
-0.0273476210002378	 0.9430945967082	 0.331398082802881
-0.5699576909911489	 0.6490483855899208	-0.5038694509921748
 0.790078031679149	-0.341096435390998	-0.509342640686558
 0.7810612345781963	 0.3492508136902502	 0.5176555002855492
-0.8938473971909168	 0.012530485599872711	-0.4481961818954454
 0.7213800206107578	-0.003741324600055789	 0.6925293267103277
 0.14046695800371894	 0.9876210215261485	 0.06981225930184837
-0.880102459606644	 0.47152421670356	 0.0555389382004193
 0.143968830795822	-0.742007224678465	 0.654750528280998
 0.9941879988728124	 0.10562317409711204	 0.02083189839943031
-0.5777623273778139	 0.6318165791757379	 0.5167189790801578
 0.8798958157420882	-0.44807088132143313	-0.15816396160756602
-0.6902957354089981	-0.4909520431064001	 0.5314676745069281
 0.35632589389466984	-0.8424220542873997	-0.40417439279395484
-0.012836735599914497	 0.8221208500945237	-0.5691682756962089
 0.39230565200835205	 0.25141855640535204	 0.8848078802188363
-0.016853112300246803	 0.9995471316146403	 0.024929987700365207
 0.076359152103497	 0.474934885721751	 0.87670185024015
 0.08013670950246068	 0.18729768130575097	 0.9790289507300628
 0.347736943101418	 0.560347738302284	 0.751724304903065
-0.9635954307522415	-0.26352386091428687	-0.04515551530244808
-0.463716646095466	-0.686461187393287	 0.560123120694523
-0.7536863970089518	-0.4789326190056889	 0.4500892816053459
-0.8442198764835294	 0.5359208900895442	 0.009033256099823764
 0.8765911424127832	 0.4364705105063651	-0.20268562480295604
 9.817333999919196E-4	 0.7369178912939348	 0.6759815512944358
 0.36141001569384607	 0.7130966724878571	 0.6007295033897702
 0.881751131035379	 0.346795385513915	-0.31976226091283
 0.027172399999006	 0.622930834377212	-0.781804858171401
-0.12824138689942402	-0.9858020749955723	-0.10839010849951301
-0.3636871476949269	 0.7089543910901118	 0.6042477388915718
 0.6833806636415867	-0.5971912493363418	-0.41994461572555486
-0.796988792303035	-0.599584362302283	 0.0728522987002774
 0.226855577606252	-0.96369993162656	 0.14077993000388
 0.94771382939758	 0.317687282999189	-0.0302206516999228
-0.38317037539751614	 0.7711123489950023	-0.5084940595967041
-0.24471685918601904	 0.5316212122696281	 0.8108591403536752
 0.4692241385970242	 0.5535812347964892	-0.6880236363956364
-0.6799107601843903	 0.2807999328935531	 0.6774014731844483
 0.129145671702118	-0.990854644616248	 0.0390956356006411
 0.5235359942130758	 0.29095371740726694	-0.8007846134199997
-0.558321973898646	-0.0929410140997745	 0.824401929498
 0.05175104580080921	 0.9332481473145933	 0.3554851963055591
-0.2745592758945059	-0.9107478842817746	 0.3084728436938269
-0.12802840820069197	 0.9659437343052217	 0.22485868640121595
 0.23933200310426989	-0.3123750718055729	 0.9193160538164016
-0.6284781248848187	-0.08472261639795346	 0.7731994081813227
-0.941888329471324	-0.335792904189777	-0.00946045989971198
-0.8778998055969485	-0.47363606349835324	 0.07043302269975522
-0.062611733599183	-0.648066295791544	-0.759005828090096
-0.5658882601884028	 0.36529141859251385	-0.7391431907848517
-0.8112701425687266	-0.3496677737865208	-0.46858638878193676
 0.7001370064832351	 0.6842182096836171	 0.20409216959511306
-0.9431958833670527	-0.25592704149105994	-0.21185578829259893
-0.037982474598900105	 0.8967590648740312	-0.4408860523872321
-0.0155449911006607	-0.996710791142362	 0.0795358540033805
 0.13026859439718302	 0.9168772887801743	 0.37731436579184113
 0.7104792119619618	-0.07837336999580398	-0.6993403350625579
-0.997001938689453	-0.0407792022995686	-0.0657585804993043
 0.9677477432933798	 0.24210933139834395	-0.06962310679952369
 0.850223993779062	-0.354294571791275	 0.389351405290412
 0.35604201428493415	 0.9327039993605335	 0.05742241409757023
 0.36919128829819386	-0.9232514812954827	 0.10632259839947998
 0.895956767236828	 0.267764534811006	-0.354349580414565
 0.5356984394003782	-0.08615944170006094	 0.8400022218005934
-0.062482271496891444	-0.4133287291794363	 0.9084356484548045
 0.365185789114257	-0.699252690827299	 0.614560830023993
 0.2720932707031499	 0.6347514594073489	-0.7232259929083739
-0.8436164437884707	 0.5315926435927347	-0.07563436419896627
-0.232456805505692	-0.949419065823249	-0.21110961850517
 0.0194834486001134	 0.0799381961004653	-0.996609391905801
 0.9532718618269218	-0.09747548400275279	-0.28595679300807597
-0.776417812467355	-0.49280175117928	-0.392838153083483
-0.6986515079166111	 0.5751574730136751	-0.4255349007101171
-0.891762620288281	-0.393975296694823	-0.222582332297075
-0.78006243102108	 0.219179758805923	 0.586057025415838
-0.09695229299652824	-0.8955244673679325	 0.43432266948444714
 0.913894065780381	 0.373533818891981	-0.158965790896587
 0.05972797549887717	 0.7747788036854346	 0.6294047777881676
 0.24848058309091894	 0.9338063163658727	 0.2574163229905919
-0.23610233890238488	-0.009621835700097187	-0.9716805575098145
 0.8247917135230625	-0.06586219030184155	-0.5615877502157026
-0.18226148169271103	 0.5900978239764001	 0.7864892309685462
-0.44007268750942324	-0.2962966956063441	-0.8476699227181503
 0.661320186026381	 0.743858916329674	-0.0965894619038531
 0.49180156627083677	-0.22178016188684888	-0.8419885861500707
 0.93448519309608	 0.296943982598754	-0.196371319399176
 0.332318671601295	-0.887452528003457	 0.319362350701244
 0.0362976466992359	 0.992168047679113	-0.119520065297484
-0.9320066700213936	 0.3305068698075868	 0.14875744030341495
 0.9331261647882563	-0.17737611509776804	-0.3127511380960641
-0.9381030661522998	-0.33363690471859997	-0.09300028540518479
-0.6841979316177351	-0.5215146752135181	-0.5097996017132141
-0.8380903841045108	 0.4570392213024599	 0.29785845340160294
-0.508137273212051	-0.0761735052018066	-0.857900990020347
-0.641698095103551	 0.762866037104222	 0.0791136156004378
 0.260672936004296	-0.67830845461118	-0.686984178011323
-0.525356254805413	-0.849991968708759	 0.038916046400401
-0.7473688878603795	-0.21108998898880915	 0.6299847315666024
-0.24121437768741794	-0.09625171869497927	-0.9656869216496278
 0.3196125045844311	 0.9283437982547792	-0.18980421269075406
-0.24066769460288295	-0.9658570938115718	 0.09591212180114908
-0.170274673894979	-0.0572720857983113	-0.983730879670995
-0.6259786558202272	 0.6998812679226151	-0.34397228561111504
 0.33946220019089196	-0.5430117521854309	 0.7680518547793938
 0.17922488780233095	 0.9711232724126317	-0.15747390060204794
-0.8104768619416188	 0.5280051661271139	 0.25364897161302496
