795
-0.3262387866903382	-0.8336174594195963	-0.4457019019587352
-0.325862275848927	-0.878144110143891	-0.350252336178007
-0.32242843633290696	-0.8980470339821568	-0.29925144644557294
-0.35257442683617984	-0.9098566562947675	-0.2187513166525969
-0.37683903771067484	-0.9172949951661395	-0.12869433359882093
-0.327176618960503	-0.944123553428185	-0.0398268234700068
-0.31891537764992306	-0.9477505625253402	 0.007864676173154162
-0.2628568865063649	-0.9597797707799766	 0.09863594080108756
-0.3079742548033238	-0.9324930069036014	 0.18870254490657387
-0.32960905041696914	-0.9151489284725735	 0.2320782467158971
-0.37031317304138117	-0.8734194555532603	 0.3162382148524602
-0.38925395527175716	-0.8491383642781724	 0.3569949532084212
-0.42396983182288983	-0.7939814039835696	 0.43570989411803585
-0.5220800656611453	-0.7381365672502045	 0.4273017822655773
-0.5684080988313508	-0.7063018061128177	 0.42195970407694283
-0.6543108997398991	-0.6351152728073591	 0.41049462448173113
-0.693445948070075	-0.596221073517085	 0.404540663715441
-0.7374197428892522	-0.5160081379195312	 0.43582992600092013
-0.772624625528192	-0.430236840243514	 0.466848422215068
-0.798456759666771	-0.340874593723889	 0.496257306541691
-0.843262497086656	-0.245270552893847	 0.478278911191288
-0.8622576474870542	-0.19656022986737606	 0.4667717058526311
-0.9026703349796524	-0.14165735617042305	 0.4063489384636412
-0.9361887583003712	-0.08447883922431271	 0.34119486302598706
-0.9620813083151187	-0.025072258252995694	 0.27160805963145596
-0.97948737261957	 0.0361142860598432	 0.198242894503686
-0.9878398272182448	 0.09706652256547517	 0.12145190800672698
-0.9874230065136166	 0.15277337711148395	 0.04069522642230388
-0.9874717240747045	 0.15714313383721293	-0.014339792214343393
-0.9790166436974734	 0.16089616870251008	-0.12505532479741904
-0.971551031338276	 0.113933734815184	-0.207623933053479
-0.9449243442835652	 0.15211765075670003	-0.28978993065415004
-0.9103017084456563	 0.18675052909780002	-0.36942528267920605
-0.8680997533291702	 0.21857317057824804	-0.44567767206043213
-0.8432400991632057	 0.20954371719807494	-0.4950126925100409
-0.785837185921611	 0.19037995852759	-0.588400704124185
-0.7727242691931774	 0.09066309433892514	-0.6282335609665893
-0.728747079845525	 0.029865956526544	-0.684131360381451
-0.6794718373956954	-0.030645001816714014	-0.7330613248901974
-0.6250169172242601	-0.09021408717070502	-0.7753807269073942
-0.565071015495131	-0.148278050380258	-0.811608506130099
-0.4996595237302078	-0.2041364634245919	-0.8418246044433497
-0.4774805477667221	-0.2524127788995841	-0.8416056769964072
-0.4179601271293249	-0.3422152143140039	-0.8415450547784468
-0.3831008575708159	-0.3815069818191889	-0.8412408428932338
-0.311280230789073	-0.458171426069589	-0.832576460304554
-0.2719874345704729	-0.49418412965283887	-0.8257147700235468
-0.23839885374373906	-0.5700526690347911	-0.7862607335101902
-0.2456613112152921	-0.6097577977528482	-0.7535555376026243
-0.2586647160758432	-0.6834320014949564	-0.6826516417544174
-0.26425874388112996	-0.7174142862160299	-0.6445805288833288
-0.27331326312686705	-0.7795693149526912	-0.5635348643900712
-0.32452117958366417	-0.8084548803867043	-0.4910058150170392
-0.37171492551696717	-0.8313909838867763	-0.41305816304691717
-0.37090755253863406	-0.8537382245621212	-0.36545674352967905
-0.35995386688740993	-0.8941316470994488	-0.2663865825600599
-0.39283628872891985	-0.9017696372580286	-0.1802530764708669
-0.4059302778687019	-0.9097018729584267	-0.08753920176337529
-0.3824600659317489	-0.9229974195998848	-0.04242713022862479
-0.3442101477214179	-0.9373294396374958	 0.05415621658182959
-0.3163977820040039	-0.9432456804006317	 0.10089613445765097
-0.3392481053054558	-0.9294450696490424	 0.1450606271589409
-0.3825544774472191	-0.8945684309440622	 0.23108308926307006
-0.40289009334202514	-0.8735958603486652	 0.27296491618618307
-0.4406111195476049	-0.8248390437633077	 0.35426316943006997
-0.4578467051860051	-0.7971523808035232	 0.3936044668567601
-0.5068746663333281	-0.7691584037261632	 0.3891958666364511
-0.5992704663529731	-0.7055154384600462	 0.3783158392819671
-0.6421704423414921	-0.6700752989028581	 0.37231198850316105
-0.7204623534346437	-0.5928294848821588	 0.35984329803091886
-0.7640846378080787	-0.5124924092260278	 0.39182419112581485
-0.7993353936103756	-0.4266679840801748	 0.4231044314146398
-0.8256068796614713	-0.33715204312836317	 0.4524398082286962
-0.848345166265832	-0.289203724539817	 0.443476814033942
-0.886797715777961	-0.19134740165827	 0.420685135427459
-0.9237085143539447	-0.13510371706818297	 0.3584823093883279
-0.9534339177452098	-0.07653637516990108	 0.29172923708273196
-0.9751984730295132	-0.015880416006768105	 0.22076175073675705
-0.9881967327878213	 0.04581847728146661	 0.14617757846907703
-0.9922279399467706	 0.10459964151352996	 0.06739903696811217
-0.9925981525769896	 0.11367499884341695	-0.04274227577816258
-0.988433299636372	 0.115974094506767	-0.0977221652097902
-0.9812979324738328	 0.07014562467872619	-0.17925947411786197
-0.9586681298059547	 0.11034868811588297	-0.2622567137852849
-0.9278115016811125	 0.14620419316883204	-0.34320569815795615
-0.8892623020249137	 0.17895353364237998	-0.4209372767934159
-0.8396464236596488	 0.16060982960432496	-0.5188432960634949
-0.8110934583678787	 0.15085353524582296	-0.5651288461020828
-0.804476262960229	 0.100723692365024	-0.585382507536654
-0.763402826248581	 0.0396566962411707	-0.644704173492707
-0.7167919387572219	-0.021537661685708996	-0.6969544071614548
-0.6648216391052867	-0.08204571484860286	-0.7424827869064317
-0.6074046677265971	-0.14118922094811004	-0.7817449542606643
-0.5446479079101079	-0.19821156541596693	-0.8149054127593548
-0.49653752204274776	-0.2964775167597979	-0.8158134414555767
-0.4656384103089729	-0.34341395870143593	-0.8156271965879638
-0.396216373425949	-0.426055669261456	-0.813319833841129
-0.359528328123698	-0.464744413233682	-0.80916748059018
-0.280416776306206	-0.536975272186468	-0.795628046656416
-0.2956515538199811	-0.6163725265121243	-0.7298459202358342
-0.302344463138319	-0.653185657833966	-0.694216336605248
-0.31364758873813103	-0.7211044755967031	-0.6177649434478781
-0.3181469163405651	-0.7521803161696983	-0.5770678570062991
-0.36900188086101604	-0.7809693011404922	-0.5039092801260601
-0.4157503013651798	-0.8040475941514527	-0.42504017839966984
-0.4127151753886518	-0.8491965797349277	-0.32944097038834586
-0.4070000392599329	-0.8694579686954818	-0.27998894391446894
-0.438050775764965	-0.878571770724651	-0.190323833340609
-0.4539623320103608	-0.8858350824093666	-0.09599170739447156
-0.415129699776389	-0.909761726241818	 9.66348318444462E-4
-0.3934831401284659	-0.9179779971122197	 0.04987399374904359
-0.3909791741545869	-0.9092904323886868	 0.14256996508308598
-0.412856400774307	-0.891673097506978	 0.185657425173345
-0.4537165657901081	-0.8493957089873913	 0.26957041284502603
-0.4725968909119862	-0.8248385434540604	 0.3103120299519641
-0.5382924275558332	-0.7688244729237793	 0.34518139038702716
-0.5842852403812128	-0.7371037107979507	 0.33954215850253383
-0.6696401836036404	-0.6667855584087714	 0.32707651031644824
-0.7087051891386572	-0.6284618543957212	 0.3205817406800201
-0.7558037131305212	-0.5512603178027391	 0.35337346990703805
-0.7953677176991257	-0.4679803810203449	 0.3852071606579199
-0.826177771377526	-0.38011614336273	 0.415862967378329
-0.8723496308654605	-0.2841260482105418	 0.39784231833372874
-0.8917873432710575	-0.23501774517158183	 0.3866290131844927
-0.9285252563057305	-0.17842718149959108	 0.3255834598140542
-0.9580918658174498	-0.11948248362986197	 0.26035343815682094
-0.979868780419563	-0.0584675054995016	 0.190889297656375
-0.9930749871068403	 0.003513104966481578	 0.11742967289507192
-0.9973032672300358	 0.062157884078634984	 0.039020387224664194
-0.9976409675813924	 0.06669862463675502	-0.016241714036040508
-0.9895873176016196	 0.07094856074218467	-0.12523275358564895
-0.978487828055983	 0.0244043104832156	-0.204856046960113
-0.9554707753371116	 0.06349941587687517	-0.2881725553552849
-0.924426641986494	 0.0980777834660799	-0.368532402884679
-0.8858566120307002	 0.12999127619917603	-0.44537661707099013
-0.8611472193707693	 0.12056896060040706	-0.4938507793956892
-0.826302657191175	 0.0600023487362694	-0.560021103946034
-0.7854249362201845	-0.0019029701168856888	-0.6189539952761055
-0.7387866364523632	-0.06391857477786483	-0.6709014246502762
-0.6864981560213186	-0.12512248768846493	-0.7162853096734425
-0.6286858071358591	-0.18471410885145204	-0.7554037687866982
-0.5657087842484779	-0.24202054674051895	-0.7882890500187918
-0.5404755785610159	-0.2917529850702659	-0.7891554629359948
-0.4785982025693482	-0.3863833116271462	-0.7884489184426783
-0.4438518407997889	-0.4289469552888659	-0.7867655641721047
-0.3693924838063611	-0.5071570760300611	-0.7786789409891642
-0.32964545305462895	-0.5434642219243039	-0.7719977427224898
-0.33762412005221604	-0.5830897166038901	-0.7389291819584352
-0.351363306278654	-0.656678624833883	-0.667320770459914
-0.3570820645470902	-0.6906403743835443	-0.6288944843534133
-0.365969900313532	-0.752807945794895	-0.547125423292113
-0.41469871686060716	-0.7787274812327203	-0.4707531032368342
-0.4584493091786941	-0.7992367786143483	-0.3886448283764211
-0.4564222368332918	-0.8220456695886377	-0.3404697619975418
-0.44582061454004773	-0.8619961509827835	-0.24126047198412084
-0.4698128623132589	-0.8703036279204358	-0.14780889565093996
-0.482336686744015	-0.874363921858672	-0.0532827624352235
-0.4636092421013068	-0.8860336057886665	-0.0033045501034151287
-0.41785182866547504	-0.9035891552647162	 0.09448009191843061
-0.4625208428396549	-0.8678742344016718	 0.18129749915706897
-0.4831920657849321	-0.8465009310436902	 0.22352091916564706
-0.5211473043131909	-0.7969214680142568	 0.30548594243450294
-0.612421165085458	-0.733896941849515	 0.293829194089525
-0.6548243882964719	-0.6990322050998039	 0.28733081408971295
-0.7325944470762088	-0.6231120647381988	 0.2739283316687099
-0.7793283940285806	-0.5460148299382224	 0.30743301668553424
-0.818718861046485	-0.46282877397112	 0.339836655690843
-0.849773970182776	-0.375029119081605	 0.370455610621135
-0.8731574149000915	-0.32699158168596876	 0.36148670004786876
-0.912485497875602	-0.228586514053248	 0.33929105758876
-0.9456621646157553	-0.17065816981978904	 0.2767649896356191
-0.971371161250305	-0.110510406329161	 0.210298638094016
-0.9889966712925865	-0.04877423865880738	 0.13966623720655394
-0.997827589430256	 0.0127118691596335	 0.0646413965990291
-0.9987249723756545	 0.022639850425323512	-0.045120579849635224
-0.9948080040593572	 0.023542311602814305	-0.09900906334186772
-0.9843412674307352	-0.020771384979155604	-0.17504519073342603
-0.965536462453015	 0.0213799845063253	-0.259388195445026
-0.9383313832955358	 0.056948124537198684	-0.34101484752776096
-0.9035841474507454	 0.08937463913835245	-0.41898432232554816
-0.8544262575991408	 0.07016974134139539	-0.5148125656248189
-0.8166036200366362	 0.008409910308716661	-0.5771375929114831
-0.7728198232602207	-0.05407199613615138	-0.6323177524076746
-0.723226211371432	-0.116118515950132	-0.680779213430363
-0.6679601298619692	-0.17686145770919706	-0.7228757083287273
-0.6072477844306099	-0.23558108393650196	-0.7587830264281208
-0.5546561411231004	-0.33544365402364223	-0.7614683973020145
-0.52360944792807	-0.383150170406279	-0.760939611899723
-0.4545222474686458	-0.4705321012375638	-0.7563128111178696
-0.41714819497291716	-0.5101386347335373	-0.7521608583162513
-0.38604314687674374	-0.5863076180620226	-0.7121896276638255
-0.3930799113149611	-0.6231098572140481	-0.6761821420026641
-0.4046050713662309	-0.6911057005748288	-0.5988886765148449
-0.40900298422103887	-0.7222515303329629	-0.5577358566830519
-0.457147907539478	-0.748211092817684	-0.480828401008971
-0.5002176849603404	-0.7688781831685906	-0.39825696114479325
-0.49491576817996624	-0.8150830005442833	-0.3011612269708071
-0.48938054225510513	-0.8351403355895642	-0.25109222356227906
-0.5133463070592749	-0.8436977493424258	-0.15700215534549197
-0.5271985662682911	-0.8475266422185952	-0.06132097890878811
-0.48942058957393714	-0.8711052120313513	 0.04053635495348161
-0.4662610684179701	-0.8800807494614482	 0.08976909549008891
-0.4890111355562442	-0.8620292394485474	 0.13331803943109705
-0.5308475649033787	-0.8188910541551294	 0.21821618698174985
-0.5499663289000971	-0.7938535078875062	 0.25948727346606304
-0.595216949252644	-0.762561463577515	 0.253410334416128
-0.6792793881798509	-0.6935244079701799	 0.24000710061083394
-0.7179280566458179	-0.6559262651968499	 0.23310950239248293
-0.7678383422947993	-0.5822370578880762	 0.2672532292111951
-0.8108764875127378	-0.5020779943004389	 0.30066095462871995
-0.8462125868795172	-0.4164352080310301	 0.33242439037896804
-0.8935322562678344	-0.3204446891660618	 0.31450804154135575
-0.9134041479656094	-0.27117724946531213	 0.3035716749824451
-0.946625502421722	-0.212936406304384	 0.241988109284313
-0.9722954925396787	-0.15270353666857397	 0.17698334688872097
-0.9898827690433722	-0.09129609442483551	 0.10861457864300503
-0.9989295336888976	-0.029679165494480988	 0.03548145796937879
-0.9995406149927172	-0.023696550185692306	-0.018895303365599202
-0.9920077322640888	-0.026279581051117794	-0.12341005934703198
-0.9778005191950665	-0.06518519927193533	-0.19914074032637508
-0.958618986493619	-0.0262321899030558	-0.283481059238244
-0.931645214191983	 0.00669015105631322	-0.36330763376513
-0.896874309788135	 0.038894119992499	-0.440572037097301
-0.8723928438408662	 0.029109072185623405	-0.4879378935189791
-0.8346681703589254	-0.03329987988987281	-0.5497455442193272
-0.7907997501514855	-0.09646550335318207	-0.6044254807858165
-0.7409360272048042	-0.15906601291342207	-0.6524659432689103
-0.685209321077537	-0.220229042105874	-0.694253091690336
-0.6233770434628543	-0.2792981704456221	-0.7303379996065104
-0.5964343800584813	-0.3294417303882102	-0.7319386426218233
-0.5345996578416962	-0.4248846132158951	-0.7305314991757171
-0.5002374482116488	-0.4691956690647889	-0.7277485276780319
-0.42573254318575826	-0.5496155645505053	-0.7188007602085684
-0.440064738188095	-0.623247709484784	-0.646455968203105
-0.445856512506684	-0.657326143540464	-0.607564244564802
-0.454479486246547	-0.719833497299914	-0.524679075956007
-0.49992278128788586	-0.7431273607752319	-0.4447908929110659
-0.5394223744084329	-0.7615048181690958	-0.3593520751196809
-0.5363181246616903	-0.7848860841625533	-0.3103493258367751
-0.5241323499159688	-0.8255604306314707	-0.20912975672329692
-0.542495742885052	-0.832363538123942	-0.113442978422591
-0.5537654880294859	-0.8324890153485398	-0.017487812655789997
-0.5348903017134212	-0.8442396993857574	 0.03393663380435952
-0.5356204605176051	-0.8347666320363383	 0.12757504581076004
-0.5567470781762112	-0.8130501687651682	 0.17024134049396902
-0.6203726621059871	-0.7568812485800123	 0.20559313135290505
-0.6619950299752311	-0.7227044682141431	 0.19864750668308306
-0.7386755544655969	-0.6482914571030899	 0.18459851538432198
-0.7881740816893018	-0.5749573642740269	 0.21955784253879396
-0.830974152802536	-0.495087452506855	 0.253713168251828
-0.8663509841731137	-0.40968010508679586	 0.28565395799524496
-0.8902613280895287	-0.36172112670757495	 0.27675367062004996
-0.9304034808481942	-0.2632181468012821	 0.25507953665486904
-0.9599891671695225	-0.2037434565887749	 0.19211820011239092
-0.9816692604311188	-0.14292930985243799	 0.12608201897862498
-0.9950322924113155	-0.08144428010389046	 0.05725003316192457
-0.996482907566425	-0.0678914476653723	-0.0491178812843525
-0.9922155976081742	-0.07932839546731751	-0.09599590374403742
-0.9847949705204145	-0.12268703208348194	-0.12299088663897995
-0.9649379405471108	-0.06817255319484009	-0.25347045958769493
-0.941938916754579	-0.0352643242828619	-0.333927394108485
-0.9110253430527622	-0.0026464206090037403	-0.41234187366014313
-0.8623680970458302	-0.022699526132851304	-0.5057726729578201
-0.821528449966626	-0.085992556699535	-0.563645532305287
-0.7745385874214977	-0.14925834042544298	-0.6146640744411159
-0.7215177930751709	-0.21141643159592693	-0.6593293310077899
-0.662321000549302	-0.271735977579702	-0.69820516377364
-0.607999805919221	-0.371899606182839	-0.701446305089163
-0.5772117364672338	-0.4196441071149808	-0.7005179759636088
-0.50910200966047	-0.508636043321866	-0.694337467801895
-0.4720749808609819	-0.5492469497545239	-0.6895455029441169
-0.4793116823532959	-0.5861239320006639	-0.6532373592314928
-0.4908571785698339	-0.6545353307987919	-0.5750154180390109
-0.4950733561923519	-0.6859657552933809	-0.5332479297223969
-0.539736616001576	-0.709378350293279	-0.45328439360114
-0.5785351761448118	-0.7280542552068957	-0.3677418271535398
-0.5716055560691038	-0.7752024575045556	-0.2689390974734399
-0.5649610765073658	-0.7958396770542157	-0.2178490083931539
-0.5839047631010852	-0.8026199336306004	-0.12188711895305505
-0.5958253737233318	-0.8027155665809756	-0.02529512198103859
-0.5582865697738919	-0.8260049744936088	 0.07766523110062788
-0.6009932847779733	-0.7823291008438683	 0.1636100535560281
-0.68330700430649	-0.714685718793386	 0.149384943078182
-0.721307620440734	-0.677852599304255	 0.142236318535708
-0.7736300038896776	-0.6081948161598688	 0.1777517445144239
-0.8197138504332587	-0.5317457773911539	 0.21287468528352194
-0.8588641336987387	-0.44907768261164777	 0.2463364261047629
-0.9071168258768673	-0.35338842960471206	 0.22859501751480304
-0.9273650741541293	-0.30416577016237606	 0.21789264214432505
-0.9571515691579497	-0.24426074197791595	 0.15555566073554697
-0.978935898931933	-0.183424657669363	 0.0896654935926047
-0.9921519113983525	-0.12294206971574305	 0.02279982900386161
-0.9931536254079862	-0.11285610776296003	-0.030155849839932407
-0.9737482008908096	-0.1622128765189999	-0.15969165273533592
-0.9550569314181593	-0.12096794393028192	-0.27061599045771384
-0.9320088812737157	-0.08680077910514669	-0.35188786562434393
-0.9008061907213845	-0.05403787350855427	-0.4308458134700887
-0.8765859313549762	-0.06447633650773471	-0.4769066019474571
-0.835683601147323	-0.128237802814758	-0.534029947383745
-0.78846924643337	-0.191864348412627	-0.584383708907933
-0.7349055013447758	-0.2542395147364909	-0.6287099277407169
-0.6747583303314761	-0.31457870173343705	-0.6676387017421801
-0.6474913843246263	-0.3646269556781691	-0.6691801628995362
-0.5863569519004231	-0.4597875428299971	-0.6669189908949951
-0.5526193270162981	-0.5043455231163891	-0.6635114714309841
-0.5236517814387489	-0.5827246201045689	-0.6214666756311319
-0.5293904376427672	-0.6171678969598101	-0.5821078521155721
-0.5375397333804822	-0.6805270444012603	-0.49792969069510723
-0.5790595184768781	-0.7016594433984071	-0.4151675559953641
-0.6140779936098432	-0.7183342184076181	-0.32696202903215804
-0.6102375527098339	-0.7421661287957219	-0.2771273471368079
-0.595424343212648	-0.784286664379947	-0.174253492319561
-0.6107806789402599	-0.7879895090899898	-0.07758540969404058
-0.6199353277229519	-0.7844228975308498	 0.018997559589115597
-0.6013657742243291	-0.7958629456302833	 0.07043704539702131
-0.6229623769891252	-0.7739286305274372	 0.11380839910123003
-0.6636319017450879	-0.7404393161005889	 0.10650031999336997
-0.738864236520637	-0.667534083056332	 0.0920754470470733
-0.7907625106465872	-0.5984898841631681	 0.12846988094594003
-0.836564939462889	-0.522596543241009	 0.16447478546574
-0.8756266895379264	-0.4403559569183592	 0.19840496912972808
-0.8999483117717586	-0.3925927480531328	 0.1896416892860089
-0.9407553847802292	-0.29434950732583004	 0.16833797415926102
-0.9667649301242497	-0.23339494552527418	 0.10436651419449307
-0.9842382064512682	-0.17299624279317702	 0.03670766869517521
-0.9692029092441872	-0.22841356359908505	-0.09204870817437201
-0.978785578649858	-0.17465030797479	-0.107126378410613
-0.961262680087922	-0.197886883105298	-0.191871940014832
-0.9617400940539133	-0.15903847523365003	-0.22307567075888404
-0.939240776680889	-0.129276602000878	-0.317984785162729
-0.9113762420263185	-0.09578417893102135	-0.40027332728586285
-0.8631089807756487	-0.11726385519940695	-0.4912148975430138
-0.8189829914804608	-0.18127647872470098	-0.5444315364918609
-0.7684153242809968	-0.24443725066852395	-0.5914290489109779
-0.7112289152348076	-0.30587050429280077	-0.6329270611512725
-0.6569499399310271	-0.4055230125393821	-0.6355846621226822
-0.6266517208434237	-0.45291655644398976	-0.6341720694440066
-0.5599266559018972	-0.5417324105967541	-0.6269036092730271
-0.5712906520034613	-0.6112712605414113	-0.5476992212606974
-0.575237610138685	-0.643286243311596	-0.505256866403603
-0.6159430935721079	-0.6648440941696339	-0.4226067154324229
-0.6503507922069703	-0.6820601855652283	-0.33442151596823516
-0.6418199627478679	-0.7302671021653049	-0.23404507026086593
-0.6339578076887749	-0.7515706736531498	-0.18231571675254196
-0.6497884882201197	-0.7552983141853656	-0.08543639251136576
-0.6596231466322529	-0.7515096655569358	 0.011424841419827098
-0.681697830612284	-0.729519791278861	 0.0555782499810232
-0.718922852307685	-0.693409597460329	 0.0483017865061642
-0.7733377868549083	-0.6282468135625723	 0.08517399057709474
-0.8221210617111293	-0.5561038554646532	 0.12192400021453305
-0.8645253913182008	-0.47723043905746787	 0.15762917180245598
-0.9133795157955354	-0.3820876556112602	 0.14052360497298805
-0.9339324858616472	-0.33302133721393107	 0.12987263303918004
-0.9602290836278038	-0.27119864948221795	 0.06641836699535339
-0.977779212742835	-0.209616868140709	-0.0029291157168115
-0.9666228381094307	-0.21380748591714793	-0.14116177886048997
-0.95172140602987	-0.24594006375842	-0.183684104764217
-0.9309637726199522	-0.21336140700787806	-0.2962825746965971
-0.9270521267969972	-0.17637460585761203	-0.33085699722045503
-0.8979380388805186	-0.14770679980650095	-0.41459616450508885
-0.8737758017916407	-0.1589791334167779	-0.45961014277474976
-0.8295523044577833	-0.22304953031696306	-0.5119491001986071
-0.7785019507236056	-0.28623903155311087	-0.5585713289590488
-0.7209429793860351	-0.3473714756512761	-0.5996451270358512
-0.6940213164875993	-0.3969568682264942	-0.6006327139181092
-0.6340594582647243	-0.49110921690266224	-0.5973109244424534
-0.6010720255795708	-0.5353275173270209	-0.5934112143009769
-0.606707869587391	-0.570498335526483	-0.553567710530737
-0.6142728564166978	-0.6352857892199006	-0.4680607053416458
-0.651604912027661	-0.654973725144728	-0.382649262368899
-0.6822990404687227	-0.6702331887449396	-0.2919854312808269
-0.6777063442723963	-0.6945539452214063	-0.2414724168726611
-0.6614124181914719	-0.7372458336747889	-0.13784844500854998
-0.6743892841456078	-0.7372552183494229	-0.04066738799233979
-0.7332736017696957	-0.6799262605601877	-0.0031788595970194686
-0.7872773663769632	-0.6156310686079741	 0.034536006647511205
-0.835749556408764	-0.544339973693365	 0.0722265325352184
-0.8779802564126564	-0.46618571181118923	 0.10872695826087105
-0.9025023436068937	-0.4187555344840749	 0.10066440345534897
-0.9438486686941152	-0.32073452007996206	 0.07924050879078931
-0.9661330412070745	-0.2577023963142659	 0.013282380127606994
-0.955043736594209	-0.265025131742305	-0.132865122350243
-0.9360874015547522	-0.2747348910819691	-0.21968412840405804
-0.9133477979945595	-0.2654480815400031	-0.3087606126195851
-0.9057881799583044	-0.18782594913111686	-0.3798278371589127
-0.8570649498743202	-0.21159672228759005	-0.4697515288044071
-0.809178051856751	-0.275438646032784	-0.519003306988443
-0.754791721285375	-0.337546353749859	-0.562451701525772
-0.701528074955523	-0.435941732518095	-0.563749204787306
-0.671874910096768	-0.48268096617712	-0.561785715440311
-0.6451998364249739	-0.5622608130390099	-0.5172813056721639
-0.6488412297785081	-0.5950680660235421	-0.47423523207213814
-0.6854415854435019	-0.6154754332746609	-0.3890498990875939
-0.7156304402109251	-0.6314656215481061	-0.29853683499089606
-0.7058024808403386	-0.6804088774932715	-0.19719690024939487
-0.69748053610291	-0.701719460013328	-0.145295220830559
-0.7108734908371589	-0.7016788209320499	-0.04801783294152519
-0.7671492012241486	-0.6413900606207377	-0.010044560621407494
-0.8183043443789527	-0.5740950014195177	 0.028159000615370286
-0.8636143394238932	-0.4998107471277911	 0.06602643256296842
-0.912651778251763	-0.405533381315351	 0.051082367729315
-0.9335377542640204	-0.35621834198134816	 0.04019644511332882
-0.9565174702921295	-0.29051035817243187	-0.02603960100444609
-0.9292561663979856	-0.3558278908970288	-0.09934530321606345
-0.921904057106905	-0.347500137642265	-0.171279198469736
-0.916138487509158	-0.300463673613017	-0.265352317765274
-0.892533272479613	-0.278912692805265	-0.354389711065303
-0.888645438103336	-0.239718056692358	-0.390953371431645
-0.864301045856433	-0.252121864992399	-0.43522208965565
-0.8163996245517177	-0.3158435008296088	-0.4834609974087998
-0.7622958089237027	-0.3772823075235839	-0.5258927268246228
-0.7359968533723091	-0.4260533832595991	-0.5261056419000931
-0.6773823280636141	-0.5186827608191691	-0.5216525426527922
-0.684292722085422	-0.585127536261117	-0.435165757855462
-0.7174531515383471	-0.6038210211750511	-0.34736313813473707
-0.7440997324899878	-0.6176101221094359	-0.2547024247554319
-0.7390219265139056	-0.6420775724340526	-0.20391906019023692
-0.7222664501179039	-0.6843129542872869	-0.10023450318471797
-0.7780379431117842	-0.6251804696104301	-0.06169553870472642
-0.8287425578455824	-0.5591731293812612	-0.02260938286483731
-0.8738437452985417	-0.48593488975055676	 0.016260126867023293
-0.8983316431603272	-0.43920486427525013	 0.009967251066663851
-0.9402794835857278	-0.3402247509310509	-0.011027765034742799
-0.926133844767214	-0.37404572026548	-0.0486405255705212
-0.913947807914339	-0.381713063267361	-0.137820686907381
-0.9009975542563478	-0.3731597372635759	-0.22125826020616493
-0.8984665738282944	-0.3481946130911412	-0.2674291067321521
-0.8735930868737388	-0.32940056977314597	-0.35823230340037593
-0.844015627120744	-0.304074567215754	-0.441787594606876
-0.7933679293796086	-0.36632036936087986	-0.4861858858741388
-0.7413932268170993	-0.4628446548984152	-0.48591244958500124
-0.7124056998547633	-0.5087362305514103	-0.48338966325190225
-0.7156928387959341	-0.5423832909485511	-0.4400046888341491
-0.7482196286978121	-0.5619812912567631	-0.35262503528350003
-0.7745193180527558	-0.5764946288053849	-0.26033395652821695
-0.7640711044751036	-0.6252593413996487	-0.1588902240500439
-0.7556681226843911	-0.6461433201487302	-0.10707239693694902
-0.8086127522640013	-0.5844092294948843	-0.06790632781437103
-0.856362255508951	-0.515600488510857	-0.0282811525045896
-0.9051072081208554	-0.4233421904042102	-0.039526340982137524
-0.8925636875381248	-0.4306450447202109	-0.13369707979710196
-0.8774696234355193	-0.42334668526028213	-0.22544321685750507
-0.8765190278479622	-0.36425970235344407	-0.31468915307306605
-0.849061846431911	-0.3423837544424	-0.402327410982101
-0.798681168236915	-0.403846711113795	-0.446112346193521
-0.7729710168105016	-0.4515876967758648	-0.44562805038687675
-0.747557177581607	-0.530911528743589	-0.399113035233588
-0.776714548668594	-0.548629375185485	-0.309387004526898
-0.7998638310443982	-0.5601288687157772	-0.21557713751268306
-0.794517235238933	-0.584415792771626	-0.164925874463027
-0.8165686534938097	-0.5647739227450528	-0.11935681932119295
-0.8634802175748062	-0.4981719985174821	-0.07890864179583441
-0.887691452323254	-0.45274583359537	-0.0838158435754601
-0.8742632681066778	-0.4512737580343149	-0.17892940884331499
-0.8547080294949827	-0.4429247445653198	-0.2707246848156819
-0.8547161278220062	-0.4120123317923311	-0.31576285293239004
-0.8267884723335478	-0.3915899905730449	-0.4038292972276289
-0.775860816945138	-0.485989992958124	-0.402310476465361
-0.804461512102363	-0.504655586458975	-0.313312008390562
-0.8274548069139638	-0.5165203080416999	-0.22028462019733094
-0.843972871819392	-0.52168695935552	-0.124709695177722
-0.849579460453697	-0.497545207862767	-0.175109984032896
-0.829742507511256	-0.489147925796279	-0.268815323071679
-0.829577475197198	-0.426394352779831	-0.360539968051964
-0.8042293377161904	-0.4731548908124917	-0.3596381815892148
-0.5552105848790668	-0.8150134412497406	-0.1658140434960209
-0.8230217582859228	-0.5418584423221869	-0.17036611714810398
-0.27911637172287496	-0.8337665992655128	-0.4763688791110099
-0.8377967607235377	-0.2640510102570709	-0.4778845589714818
-0.28832723966256996	-0.5776528194162869	-0.7636652559132028
-0.5827478318278712	-0.28598922854885306	-0.7606675526496102
-0.7437438514026673	-0.4328197307679132	 0.5094233643628042
-0.921682364702908	-0.343851591221614	 0.179632129113975
-0.4539668327110151	-0.7302572315613421	 0.5105276589477731
-0.361322717610632	-0.913201550936057	 0.188437844146147
-0.41126656409490386	 0.06211454146147049	-0.9093962816047818
-0.9428822602430724	 0.10510902374007704	-0.3161093741845112
-0.5052716206473888	 0.4029873015670629	-0.7630870357593937
-0.7816649950513275	 0.42566071789649873	-0.45586487992742475
-0.6651294598543053	 0.7220242626763452	-0.19048298018615803
-0.9941216846941412	 0.054972843359100715	 0.09327412563995542
-0.7098039473134619	 0.6793673946058879	 0.18611367366380197
-0.883341045261869	 0.331519606188311	 0.331365883078533
-0.6908123528526439	 0.23416008314225295	 0.6840667720398409
-0.6213952015681399	-0.13377374800091496	 0.7719926086523617
-0.31349381700347406	 0.8874940996680932	-0.33775116543827505
-0.409081386825228	 0.793970370128793	 0.449737112445366
-0.03541749112291301	 0.9944151353954392	-0.09941901135612352
-0.08705940902260562	 0.9464869211326552	 0.31077832521825205
 0.2779621008888568	 0.8342416614074124	 0.47621205449006965
-0.3963537926403792	 0.5164971880125813	 0.7590351281954504
 0.293540255448237	 0.578613891814877	 0.760946832985213
-0.05942838070457497	 0.41641497670426586	 0.9072303096475656
 0.0143392691283582	 0.0205373672733015	 0.999686251734186
-0.25494876895851787	-0.24555062051006088	 0.9352571934893955
 0.9414410647542863	-0.10597235450057793	 0.32009152078104075
 0.7831220933533333	-0.4273709292901961	 0.4517453659967391
 0.9943868646492946	-0.056179172498849975	-0.08965859685657666
 0.661868854288195	-0.725350701183235	 0.189198255848783
 0.8834295222037234	-0.3279470639261708	-0.3346684965172328
 0.7120055015524731	-0.6770993561035041	-0.18596942685084403
 0.4118793972957238	-0.7945623459203877	-0.44612334676499676
 0.31138763262732005	-0.8867442827442112	 0.34164648288429306
 0.0859982325736165	-0.94572374591359	-0.313386184139285
 0.033901016903197495	-0.9949477399344078	 0.09449717377966127
 0.21155804668629294	-0.6896893219931148	 0.6925112504580399
-0.15707790745263497	-0.6140855136703379	 0.7734503945894258
 0.40905487619820263	-0.06827111071991164	 0.9099522864961342
 0.5060999377608298	-0.4057622337026869	 0.7610649530093277
 0.5833374091354478	 0.27956527709483897	 0.7626012870078498
 0.8389857450819378	 0.26393451075404195	 0.47585869077104187
 0.555746297598985	 0.813909532105218	 0.169402851963258
 0.8242698426132472	 0.5407252354000401	 0.16791499742400604
 0.36197328448706695	 0.9140436258289257	-0.18302893596138198
 0.921499615869691	 0.342581101773734	-0.18296624459038
 0.449680396038422	 0.732685884479033	-0.510841400146763
 0.7420928564720344	 0.43765603443895823	-0.5076961570588672
 0.6216056885704289	 0.14156914579352098	-0.7704314018108138
 0.6886721595171208	-0.22732652388788294	-0.6885152926719038
 0.4016266296834451	-0.5187129935825381	-0.7547402736158703
 0.06437078901618899	-0.4144698113184449	-0.9077836620181517
 0.25617422097533793	 0.24522763139887194	-0.9350070466612418
-0.013169416061145005	-0.01740034966610471	-0.9997618688028195
-0.214627031350149	 0.690852581399936	-0.690404191895492
 0.150350931972658	 0.614175360986164	-0.774714930288857
 0.26094437859340314	 0.9646008769056524	 0.038120592248143514
 0.17975888860379402	 0.9836328099587293	 0.012378899006919204
 0.09143310447785741	 0.9957575011704872	-0.010343416662236801
 0.24050599881035212	 0.9690220644039924	-0.056152499805974726
 0.15218837912947897	 0.9851529817110047	-0.07944998353592529
 0.05838170707332947	 0.9939038937407806	-0.09352339967152086
 0.30177353948577496	 0.9455538731924648	-0.12190407604733997
 0.21264366230824114	 0.9661681948744036	-0.1459509920941801
 0.120194140001901	 0.978969073167886	-0.16484211382415
 0.02563018391724759	 0.9842032876349786	-0.17517700271687392
-0.06851776133644712	 0.9811614324404302	-0.18063100473862403
 0.27287416679115395	 0.9388926810023608	-0.20980996796680695
 0.18104297207717704	 0.9557480762246993	-0.23188155824525805
 0.08701444217305201	 0.9651211657134462	-0.24692027528178306
-0.007355619121737227	 0.9667410782013736	-0.2556512909910329
-0.10092102673698997	 0.9602413736825898	-0.26029108826566594
-0.19327536344806195	 0.9455147474505767	-0.26200476376869897
 0.33121156229067106	 0.9040709927838312	-0.27010098298938306
 0.24003800325275995	 0.9247993047290618	-0.29517452967197594
 0.146796606098961	 0.937833474642568	-0.314514117771642
 0.052714530994397185	 0.9434921031594877	-0.32717553315877296
-0.04087668234319059	 0.9414187133371028	-0.33475349590307196
-0.13329501574387703	 0.9314820510992692	-0.33848726306574406
-0.22412798521971494	 0.9136392626408077	-0.33916064630571796
 0.38688876640754283	 0.8622455807496117	-0.3268786332959298
 0.29664346913182393	 0.8866704432309898	-0.3547085808406629
 0.20419901897421	 0.903113759546648	-0.377741046177788
 0.11066091933239505	 0.9121618988380404	-0.3946071859972772
 0.0173133018736634	 0.913845675369535	-0.405692409574828
-0.07501072932823978	 0.9080104780006027	-0.41217758591020287
-0.16589252610345204	 0.8945879949301853	-0.4149602259371451
-0.254822196571825	 0.873584147474482	-0.414628008479399
-0.34138015823127604	 0.8450728225404722	-0.41147480137849113
 0.35062878459059005	 0.8418171732301772	-0.4103697141252991
 0.2590959118520688	 0.8615685838501035	-0.43654196108057275
 0.16621495629208197	 0.8735829061334928	-0.45741173401671986
 0.0732162824023447	 0.878349104398472	-0.472379325112332
-0.018894229773024202	 0.8758832756077493	-0.4821529794493901
-0.10953568301015303	 0.8662236283452982	-0.4875023690648141
-0.19847355826788007	 0.8493709187644524	-0.4890575518542952
-0.28588112168556695	 0.8249430471370698	-0.4875868673826319
-0.370691519854911	 0.793176897815448	-0.483175129616083
-0.45049297749365314	 0.7550426645213002	-0.4764101719962311
 0.4017607624597231	 0.7904346511164172	-0.4623865829176381
 0.3114785391093589	 0.8136256754195367	-0.4909117843079368
 0.219426939019233	 0.828448131945249	-0.515291675761483
 0.12694963971851106	 0.8357950477279573	-0.5341632963511832
 0.0351200416103412	 0.836037305316814	-0.547547447072752
-0.05536303541722931	 0.8293207008724243	-0.5560234791929761
-0.14414712846839603	 0.8158286684726812	-0.5600403459148351
-0.231288290619836	 0.795693355069712	-0.559801582098568
-0.3178001468756512	 0.7686419139742565	-0.5551510377616223
-0.41224949853717	 0.730491266552969	-0.544456481682137
 0.361235447638747	 0.759438341833078	-0.541075185462297
 0.27037801721355703	 0.7772111950434583	-0.5681887768222681
 0.17873071291189607	 0.7868590676546383	-0.5906844673018572
 0.0874416349668581	 0.789323019127039	-0.607719616229803
-0.0027904529999879402	 0.7849818128871052	-0.6195125235284021
-0.09161754950721522	 0.7741069489472442	-0.6263901788932211
-0.17905998272132898	 0.7570360542097457	-0.6283581265603049
-0.26577980813586	 0.734220360364555	-0.624725184391832
-0.35077061868215514	 0.7059502637803783	-0.6153000878740003
 0.40798297254261423	 0.6986451924351702	-0.5877455139790663
 0.3191937433154119	 0.7199783268155497	-0.6162358015761308
 0.22889824239846004	 0.7319437274578651	-0.6417662927125282
 0.13851145171748797	 0.7363485932792929	-0.6622728492990789
 0.0486658586427911	 0.734032314304102	-0.677368581910856
-0.040051035659436816	 0.7253604715793842	-0.6872031001186912
-0.12778065587452694	 0.7108468850927186	-0.6916421111660677
 0.4509729837086819	 0.6318635487403308	-0.6303743520624587
 0.3663264384199411	 0.6559760072081232	-0.6599245551438813
 0.27827219238632894	 0.6710722495395379	-0.6871874728503499
 0.1884808125113571	 0.6776633510291883	-0.7108075449704724
 0.09938752859024186	 0.6770439278154097	-0.7292006849756837
 0.011284778690882503	 0.6702608371971602	-0.7420397993973502
 0.4159807678131388	 0.5773720852421348	-0.7025677732380987
 0.3262428931639972	 0.6049998906411882	-0.7263199756196543
 0.237327942133947	 0.613640193076387	-0.753074472627801
 0.371877705987186	 0.535821677397251	-0.758025132710588
 0.4165017311938348	 0.40112472031196283	-0.8158586070313827
 0.34837660606579496	 0.4699173673945009	-0.8110557367820658
 0.28807771204194293	 0.5432284394037469	-0.7886153019360258
 0.3133048414886248	 0.4041442969374178	-0.8593645696401196
 0.25797799165057594	 0.47348165583171287	-0.8421772244692888
 0.20252909452547094	 0.5457444867361338	-0.8131081853405527
 0.28260677268841594	 0.32547157116363695	-0.9023312409503018
 0.22529927775941305	 0.4005690198876921	-0.8881355165442382
 0.16883780052522698	 0.4728820528389829	-0.8647984512107968
 0.11537408340519506	 0.5431640442877372	-0.8316619757277594
 0.0629876145749326	 0.609316616794808	-0.790421293303697
 0.19536384049678207	 0.3211289298695152	-0.9266656248222485
 0.136740824827658	 0.395238002978221	-0.908344025040755
 0.08079608347939339	 0.4672839372203429	-0.8804076981207318
 0.02725052218560301	 0.5357230483942143	-0.8439539231852783
-0.02491723820199861	 0.5994793837667142	-0.8000022497962523
-0.07646782205750395	 0.6580685161705164	-0.7490650840981155
 0.16651861281499397	 0.23968707958324195	-0.9564630967617238
 0.10593376520189005	 0.31480329451444417	-0.9432268672769044
 0.0475440318626854	 0.387770904783322	-0.920528810216043
-0.008066092909940722	 0.4578694790522491	-0.8889828335224422
-0.06155195594064671	 0.5238175629234672	-0.8496037414540972
-0.113412445566199	 0.584916097221291	-0.80312562927733
-0.16409509084102802	 0.6407286694809902	-0.7500263817140003
 0.138165357344585	 0.157539806491042	-0.977799336981064
 0.07565091760603569	 0.23282047863308195	-0.9695728767836008
 0.015118594870202806	 0.3063552329134071	-0.9517971944462345
-0.04274783329393818	 0.37732385891752984	-0.9250942266819405
-0.09800683635637304	 0.4447137418009802	-0.8902945287267504
-0.151146894388322	 0.507723879381508	-0.848157460983842
-0.20250301429741505	 0.5657944690850281	-0.7992929049811792
-0.2521904251436761	 0.6184684757325202	-0.7442423892731084
-0.3004675306781851	 0.6654545300824172	-0.6832931518762232
 0.04598174836985588	 0.14996600322667694	-0.9876213225184376
-0.016400133081484598	 0.22380864102643894	-0.9744951143216718
-0.07659105738413285	 0.2951755402174132	-0.9523682115579767
-0.13397700874972596	 0.3633503346871718	-0.9219689232339645
-0.18872450049670808	 0.42754924065603717	-0.8840727966218135
-0.241160861954307	 0.487268472645221	-0.839291888574797
-0.29179811261687694	 0.5421151835501339	-0.7880133179316408
-0.34072012819677905	 0.5915742690896271	-0.7307186041101211
-0.38756667277638174	 0.6352434192157356	-0.6680253531836545
-0.43166298540043485	 0.6735066620259277	-0.6000465342303687
 0.016548194496768295	 0.06650118255846668	-0.9976491116505958
-0.046864135015205206	 0.14051152694354602	-0.9889692935805792
-0.10912449981889803	 0.21202222520284605	-0.9711531390873992
-0.16882181163111498	 0.28048672203792596	-0.9448949119759338
-0.22562318084282296	 0.34529187715235593	-0.9109707458744047
-0.27962560661226804	 0.4059635234992421	-0.8700592725296372
-0.33100833914068195	 0.46228333361094687	-0.8226345475877348
-0.38018923890067513	 0.5142943207312591	-0.7687375978106562
-0.4287509266880341	 0.5622390078952091	-0.7071491645085661
-0.47557597236134025	 0.6072321714443493	-0.6364719824749133
-0.0764781876874259	 0.0566439810837675	-0.995460971718645
-0.14004702498353203	 0.12819535380969901	-0.9818109706327732
-0.2018953213708461	 0.1965431047294411	-0.9594837607754885
-0.2608789801005351	 0.2614420843206831	-0.9292955365693745
-0.3168338916807628	 0.32257892281635686	-0.8919412108637326
-0.36978217531966	 0.379855937011531	-0.847921346548695
-0.41967298443875484	 0.4336201892728198	-0.7974008512581817
-0.4662600008238592	 0.4850708967803592	-0.7398025660461264
-0.5090485671070111	 0.5345748096137511	-0.6746105018843991
-0.10628938676937798	-0.02796814767790219	-0.9939418237380178
-0.16933950110573603	 0.043694976793785804	-0.9845886868983672
-0.23269758321865494	 0.11163066553729997	-0.9661213325850417
-0.29370622794844875	 0.1761959979320939	-0.9395166959543654
-0.3516917770984908	 0.2374744613519989	-0.9054936632174095
-0.4064362074024309	 0.2953252087192069	-0.8646343911777308
-0.4577460565061121	 0.3503346446145221	-0.8171500379587092
-0.136166972571859	-0.112311840064987	-0.984299043056444
-0.19742987192879607	-0.04239036805403602	-0.9794000726804254
-0.26058899602999597	 0.025287802558078592	-0.9651185948834797
-0.32347937767819096	 0.08987697870928489	-0.9419571226520987
-0.3834464810737691	 0.15082485974970203	-0.9111644515857862
-0.4399055511583533	 0.20867954444550613	-0.8734620505723656
-0.22700962285956588	-0.13866556618743994	-0.9639701716770466
-0.28517842882047995	-0.06151767859483419	-0.9564982169119738
-0.3498401976057732	 0.0027982434506258415	-0.9368052123962295
-0.305556590531123	-0.146524932696679	-0.940832404884754
-0.16591659723300903	-0.19391277096438406	-0.9668865083449733
-0.12352376122482897	-0.26974866440555795	-0.9549751507051317
-0.07200915664562053	-0.33922266492888514	-0.9379459818975354
-0.07711811629147011	-0.18728957326123302	-0.9792728995981053
-0.028136798736129207	-0.26425095978355606	-0.9640434382383152
 0.020441634368770004	-0.33859934091409705	-0.9407085765086193
-0.043443393967305996	-0.10161009758802297	-0.9938752736579948
 0.012234008572451695	-0.17986739617249192	-0.9836147868085235
 0.06367656718774935	-0.25710744369543315	-0.9642826645686337
 0.11055893247107197	-0.33397644949113797	-0.9360750256449267
 0.153344143054378	-0.40882688994507	-0.899636675468914
 0.04727363003880339	-0.09402415880134697	-0.9944469123410528
 0.10203077542643496	-0.1721353061649469	-0.9797750544065615
 0.15263994669117098	-0.24965780360529494	-0.9562280208052347
 0.19858342768605505	-0.3260606702595781	-0.9242559502423192
 0.24089443375147707	-0.3996778177373671	-0.8844362689285482
 0.28032154403200404	-0.4695762210690181	-0.8372084594400933
 0.0793894941765643	-0.00903691974815021	-0.996802709815666
 0.13771926273904295	-0.08649955017081956	-0.9866869982374655
 0.19141114421799107	-0.16398325713821307	-0.9677144543962864
 0.24043487143930511	-0.2407517316490301	-0.9403348745547825
 0.28530087417181904	-0.31557996040087205	-0.9049932042784522
 0.32679908605884606	-0.3873747003735451	-0.8620575380226132
 0.365435629280212	-0.455324911402501	-0.811871927035835
 0.109381359336652	 0.0747058332563042	-0.991188557594945
 0.17083207280938703	-0.0016200564986221305	-0.9852988269132312
 0.227683030576612	-0.0785832342115493	-0.970559175366604
 0.27982759977860994	-0.15499808561031397	-0.9474555967744768
 0.327290749629978	-0.229998537163193	-0.916505012593733
 0.37074939634216014	-0.30261704125726013	-0.8780477273204604
 0.4109436392051803	-0.3721611240714822	-0.8322388017430176
 0.4483876835851579	-0.4379431861234449	-0.7792010337115718
 0.4834691086236151	-0.4991444879362241	-0.7191052782239691
 0.20134305663365096	 0.08198202683629299	-0.9760839722181858
 0.26126817500215105	 0.005918998967928692	-0.9652481060236602
 0.3166065650767241	-0.06983938695020721	-0.9459824221309492
 0.36709014538869	-0.144434336557619	-0.918903448454554
 0.4129307918406221	-0.21700713411581707	-0.8845315511007602
 0.4545975600926562	-0.2869727437009031	-0.8432008673682563
 0.49280095936103424	-0.3540663669882442	-0.7948485530090563
 0.5284161483030508	-0.41800276385774787	-0.7389520035968858
 0.562155807129101	-0.477963111023401	-0.674931191316464
 0.5960484392713552	-0.5309392806680312	-0.6023534994385732
 0.22958536886342112	 0.16421550008753907	-0.9593350967909214
 0.291895382507003	 0.089151940284217	-0.952286205515259
 0.35026461345376597	 0.014332472148664097	-0.9365411260613128
 0.4038921117137551	-0.05946000165785791	-0.9128722091827812
 0.4526334160074281	-0.13150890278006303	-0.8819458028717132
 0.4966873374211812	-0.20128816428318008	-0.8442658134527093
 0.5362731196148028	-0.26858224489311794	-0.8001716808952818
 0.5716562863887148	-0.3334834758427708	-0.7496651663056567
 0.6038379487643918	-0.3964191039786498	-0.6915429311566826
 0.6357031708288773	-0.45550971370379023	-0.6232113440235202
 0.319684043249117	 0.170920594886182	-0.931980827450678
 0.3805270962329808	 0.09735326362082676	-0.9196311603544486
 0.4370348498562799	 0.024839967730363392	-0.8991015048448388
 0.4886669807330679	-0.04619731624300429	-0.8712464576187218
 0.535442227516549	-0.115496407647362	-0.836637436894065
 0.5774699300303661	-0.18282896297055604	-0.7956771017252132
 0.6147349989490493	-0.2481409421465511	-0.7486834804493382
 0.6470911954486878	-0.31146154753380195	-0.6958912912090778
 0.674492075034822	-0.373120517459325	-0.637056920664163
 0.344951676224287	 0.251109758556903	-0.904407115312318
 0.40735307554419187	 0.17940355854594597	-0.8954763174008228
 0.46597167289463387	 0.10885707309976198	-0.8780777515094718
 0.5201980956544789	 0.039101079179422495	-0.8531500728971768
 0.5696750928041421	-0.029622288293246708	-0.8213359901251522
 0.614307916921321	-0.0969406558905707	-0.783088942868748
 0.6540285934658759	-0.16276062883713696	-0.7387527168339809
 0.368088655275131	 0.330058134801988	-0.86923665909163
 0.4304721469639171	 0.2619812610097281	-0.8637473875896983
 0.489930681824273	 0.193378765495169	-0.850042693082393
 0.54645133647534	 0.124392248793568	-0.828201367605967
 0.598626143988253	 0.0561497756787603	-0.799058159601027
 0.6459136336538241	-0.011118345392745602	-0.7633295227199333
 0.44646850507957486	 0.3478701668228609	-0.8244102261657388
 0.507768319046671	 0.278872849397429	-0.815108132729319
 0.5665967077625021	 0.20946797185951305	-0.7969261819753172
 0.5160619357829859	 0.36574120375008395	-0.7745407996454138
-0.18366843498033808	-0.33896516204623917	-0.9226963340725054
-0.2059678311104999	-0.38999922593258485	-0.8974841816542626
-0.263163292113711	-0.448892970270606	-0.853955609458423
-0.11679455869234603	-0.4127538575465331	-0.9033234659524332
-0.17378724082926603	-0.4733650504941771	-0.8635528495092792
-0.2307864057510709	-0.5283481196237668	-0.8170592998127687
-0.025308893786916108	-0.4165794342469241	-0.9087469586511943
-0.07939048335279739	-0.48692268802203287	-0.8698295505686198
-0.13715224150657893	-0.5477546231601806	-0.8253206258517775
-0.19507476077367195	-0.6009200403512799	-0.7751393054240707
-0.252443607849503	-0.647543970809631	-0.718998630543913
 0.014128772556093497	-0.4900902844865399	-0.8715571644120428
-0.042000824571370894	-0.5570546419284839	-0.8294130796179028
-0.09958021852150567	-0.6159959738898559	-0.7814299330270738
-0.15727161150711097	-0.6673272368239319	-0.7279697790477929
-0.21405052836580107	-0.7115917705664493	-0.6691931883756943
-0.2691625062125089	-0.7494696031502229	-0.6048527582835749
 0.10478153360996903	-0.4874071645843671	-0.8668650910759822
 0.05158083870677022	-0.5593996826744512	-0.8272916124934603
-0.004489009275456808	-0.6233799622839208	-0.7819061781432747
-0.06139892682351573	-0.6796379204371573	-0.7309736444556514
-0.11810860752715906	-0.7284325596426923	-0.6748602543344743
-0.17375765112750702	-0.7700809637290172	-0.6138270016680921
-0.22765877007850105	-0.8049678684728993	-0.5479034724589191
 0.19336294224981093	-0.4803617361741319	-0.8554901372805358
 0.14260688408691302	-0.5560658574350901	-0.8188125785587322
 0.0886417142157007	-0.624630513539273	-0.775873293815792
 0.0332269399383949	-0.685458446071452	-0.727353207988829
-0.02257407522325321	-0.7386452016934764	-0.6737163180026283
-0.0779092480314999	-0.78445447965432	-0.615273368854395
-0.132017926560415	-0.823143815381406	-0.552273054082879
-0.184251210518641	-0.854882309857032	-0.485002812070117
-0.234164456280727	-0.879877163144209	-0.413501130823182
