789
-0.37157066971475955	-0.9256837920146631	-0.07102643598745033
-0.3028958405619811	-0.9033123838668193	-0.3037776274235728
-0.2268446849621086	-0.9489093171602128	-0.2193458381437419
-0.11111504913688582	-0.9622241271006189	-0.24855215766667454
-0.07309023482221655	-0.9307122507670406	-0.3583748370711633
-0.675289040311632	-0.7369022936727546	 0.030979374022543627
-0.7604871954834872	-0.6468743812878864	 0.05668121681010828
-0.7117019812632561	-0.6562480906339483	 0.25063665614840347
-0.6080358170728182	-0.7859783755863731	 0.11193944017725366
-0.580241658851536	-0.8144441949798842	-5.201891832441498E-4
-0.7330544828040738	-0.6780755201197777	-0.05333586274867028
-0.7000493048491061	-0.694638650630692	-0.16555396651924395
-0.9263294136049688	-0.37661842925574435	-0.00850742235997068
-0.8747014459313905	-0.48434376711712324	-0.017564046809567677
-0.8322015794687662	-0.5494584086451504	 0.07440422231856157
-0.8434425183860251	-0.5047629115728239	 0.18389975877951972
-0.8452313508986486	-0.5194170801605719	-0.1256577108478096
-0.8026830367247328	-0.5480994543535981	-0.23513173050792033
-0.3200945677574821	-0.9385890944602302	 0.1288020941307868
-0.2924042171113867	-0.9562071833831571	 0.012945897494044135
-0.428907689097672	-0.8890885249369833	 0.15987429142383677
-0.508090968807654	-0.8576102998403288	 0.079675222145162
-0.15825538765826588	-0.8996365332441181	 0.4069512751296364
-0.2518884826867056	-0.9129859250210309	 0.3209499852052992
-0.3746666726146179	-0.8079734511640939	 0.4547568434294028
-0.3619804257336009	-0.8643836062950484	 0.3490145449033432
-0.45026032826605444	-0.8511141132671021	 0.2699451851530219
-0.2855897941945453	-0.4204133119388117	-0.8612149073236928
-0.41607885262503636	-0.5632020479104677	-0.7139200526863556
-0.3066839717891054	-0.5937535341130343	-0.7439097271685194
-0.2400089241797522	-0.5218820355795767	-0.8185565693667087
-0.5201402617037523	-0.5242772117535239	-0.674231053416188
-0.5392312818456138	-0.2370890512638196	-0.808095542896976
-0.32438808546159004	-0.3134756460062399	-0.8924715061958757
-0.20834758884206395	-0.3415968215205015	-0.9164621616579645
-0.6040554420571523	-0.3047191295007515	-0.7363852762226053
 0.07994099800804867	 0.14122018707315612	-0.9867453043214851
 0.26817718466500906	 0.2125967568981091	-0.9396188677232681
 0.197949303423363	 0.12187593284296973	-0.9726059480940169
 0.31375024396694456	 0.10153121434880961	-0.9440615429745769
 0.03252781460639583	 0.2535101891752133	-0.9667856666610649
 0.09886805394925317	 0.3440611505182782	-0.9337274937648171
 0.04552769090348797	 0.45133147730128886	-0.8911942139388209
-0.03611078891537149	 0.6164055935955813	 0.7866003782785694
 0.08366208322442795	 0.60185124382596	 0.7942139108172899
-0.0699236182577802	 0.45635038163716085	 0.8870484861547073
 0.04410616151616583	 0.4292700495952632	 0.9020985927473727
 0.07089770521235583	 0.32234179404748636	 0.9439646620535483
-0.02188086373836086	 0.24029769445842777	 0.9704525984508607
 0.03942784539537741	-0.4208230265090531	 0.906285509851746
-0.07443339780859215	-0.3899844737225623	 0.9178081387446965
 0.010593526515243023	-0.5985689114171535	 0.8010012705862924
 0.5635354596881812	-0.05414839931821353	-0.8243153137758062
 0.5931048395804082	 0.1518303821969403	-0.7906795711969733
 0.6256712993226825	 0.039715726366618825	-0.7790751480332551
 0.42501623004372074	 0.08054215178533163	-0.9015953449221062
 0.4624398074178796	-0.03251489959780524	-0.8860542905598162
 0.4922958513447302	 0.17083027998908884	-0.8534997423477155
 0.44831983502634054	 0.2785654433881855	-0.8493589460716232
 0.3344581174156588	 0.29962528501018626	-0.8935113073024529
 0.12928219167268457	-0.6141198768048998	 0.7785517913597283
 0.05278201897231233	-0.6864283008897307	 0.7252794262977849
 0.12285079818739289	-0.8308889911400558	 0.5427072560662708
 0.6774958286631093	-0.19040080650090335	-0.7104554419721849
 0.7368102694360588	-0.09547598037334507	-0.6693242592535483
 0.8100130114091416	-0.11356225248392407	-0.5753108170012725
 0.8275968548902084	-0.2065121718933343	-0.521954182506217
 0.6934767467335939	-0.3021123063294991	-0.6540780963341166
 0.881175311386828	-0.2071861427963143	-0.4249752614394304
 0.7717956506712551	-0.40921076464515177	-0.4867011646826666
 0.8315774567116668	-0.31187814504752215	-0.4595769316781171
 0.703242159319757	-0.40426908243987436	-0.5848221732616742
 0.01822708322934323	 0.920161800839163	 0.3911138372819087
-0.05359255745133953	 0.9512575010901356	 0.30370545666085025
-0.03419298035959534	 0.8742748691795232	 0.4842254570086708
-0.16062705174494343	 0.8564869448043846	 0.4905395637737886
-0.019960180494411964	 0.7545757975250044	 0.6559092597182438
 0.03506819537169576	 0.8201473249797917	 0.57107669099856
 0.5685488667648462	 0.8168167812907048	 0.09778819919756272
 0.6148454392600006	 0.7886103532635834	-0.007667890626721186
 0.4154241016305936	 0.8783293357570541	 0.23655949300965878
 0.46327738371266525	 0.8777409694591782	 0.12224915653373583
 0.4710359536283801	 0.8197939953968852	 0.32567305000662006
-0.964768566099871	-0.2630998333072027	 3.026207544867486E-4
-0.6911920533478007	 0.36931492515881337	 0.6211763287857894
-0.28080458150223164	 0.8204562831732858	 0.4979962594325721
-0.5692520355446453	-0.5822794040342222	-0.580433299928449
-0.07170899383135992	 0.4679164123907013	-0.8808587010520524
-0.5673734842260587	-0.1198810348527693	-0.8146875885146475
-0.6669732883886726	 0.01877025303840052	 0.7448451585241559
-0.7614884729081387	 0.5877395599651428	-0.27330846177901524
 0.024295498998891055	 0.9923900516156362	-0.12071335544466444
-0.8422414980990153	-0.4529733086429969	 0.29230881022805844
-0.5247803362282415	 0.8438974698095211	-0.11154666806885231
-0.994796429817014	 0.04869317801993184	-0.08949322676963987
-0.9374786453067704	-0.15878220106060809	-0.3097127737438856
-0.9555568869518618	 0.25242537643662416	 0.1522907256851042
-0.7890085208506914	-0.5121846473033838	-0.33931171670266985
-0.4112070433984363	 0.16335337918581264	-0.8967856159462488
-0.11772785533186554	 0.6696038377613369	 0.7333286115611805
-0.11566495507790875	 0.1573513470926912	 0.9807457222618619
-0.27582847483410783	-0.1251605882107053	-0.953023336350921
-0.44273864084785153	 0.2675535984264224	 0.855802294849266
-0.220067531450151	 0.7211870493028656	-0.6568557844148616
-0.35008721543605636	-0.7329078656336209	 0.583339525560028
-0.43771700905935595	 0.5980239320550128	 0.6713949632441348
-0.2558980148219527	-0.6849533957525026	-0.6821693716792769
-0.6283763571102915	-0.7456003543696934	 0.2218631681658475
-0.9416146867042197	-0.11118824125753266	 0.3178033303616734
-0.5744145312344994	-0.7564186150594825	-0.31285591747343533
-0.26796848923405564	 0.41426191222491787	 0.8698160477120278
-0.12409102610514654	 0.9688774486125993	 0.2141912855606221
-0.18707762933976863	-0.35277746516765107	 0.9168151507640453
-0.5229871554939816	-0.24377084371376379	 0.8167375410395886
-0.5557217070683631	 0.6469948575322682	-0.5220833636688922
-0.7619421543984126	 0.39485209076091127	-0.5133575554839364
-0.8756146922246445	 0.16154627672211835	 0.45519414675230846
-0.47742489309354047	-0.8779837358888444	-0.034785499411242427
-0.6813815324211248	 0.16087316165450172	-0.7140301346124858
-0.7450882867663481	-0.3117984785032651	-0.5895974505767789
-0.33051829619610285	 0.8747809611305798	-0.35428226871110047
-0.7613433083513765	-0.2575865503414072	 0.5949836433985345
-0.3756282721024781	-0.8427063283410824	-0.3856804964879593
-0.033819735303970984	-0.8865909250798734	-0.4613163308078133
-0.4826585791004137	 0.8478662114775893	 0.2194620319221746
-0.8161074214924312	 0.03737820895363286	-0.5766901647161968
-0.03739259190484048	 0.15906987739743658	-0.986558953218409
-0.42017324670344	 0.4550155211135223	-0.7851212124891801
-0.32713063660371394	-0.4947888646862864	 0.8050897626834568
-0.07074971093138684	-0.8680266932587577	 0.49145105371073505
-0.8150584388242293	 0.4689195378693724	 0.3402854805979594
-0.9163279354396269	 0.40003189681226825	-0.017821230757999913
-0.06485970287600147	-0.6660301543117184	 0.7430996248756592
-0.16881595272876412	-0.44488127869740635	-0.8795350032652712
-0.7253960979213976	 0.6830662788698558	 0.08497623074306455
-0.25637118860681274	 0.9661798728347096	 0.027753684105619368
-0.8086381450107736	-0.587164394926675	-0.03663773688326082
-0.3435894031024898	-0.9076815579823204	 0.24095748872874292
 0.6535313367922667	-0.29329078376426976	 0.6977659406917575
 0.5089292274158697	 0.8607442470333716	 0.010506316235493366
 0.4095630815774458	 0.717889250637479	-0.5629325945687864
 0.5274807438246566	 0.055150564155348525	 0.8477750174235698
 0.21632205462108905	 0.32120026978765526	-0.9219735112099742
 0.12052253264501099	 0.5070524442329756	 0.8534472086322608
 0.8888289354053608	-0.0987239626038197	-0.4474781590133455
 0.15660314773261522	-0.44165003830207905	 0.8834142277482343
 0.7810124653189641	-0.5850978279185883	 0.21835764420176348
 0.6550420668817599	-0.07549240250351567	-0.7518116704198727
 0.553744411115804	 0.2602009067424476	-0.7909883787315841
 0.810633111351839	 0.5151136017548135	 0.2784455711036194
 0.8343080494006259	-0.3989765358025989	-0.38045735974518924
 0.6244752069879766	-0.3931174534738203	-0.6748995359544874
 0.9179533881444091	 0.1561393701159878	 0.3646670732243078
 0.6199979528634928	 0.7625884144674228	 0.1845574397447591
 0.0875206194812511	 0.8730318361534161	 0.4797453014133781
 0.3659398576673575	 0.8628971291551932	 0.3485635739232086
 0.8104140183998978	 0.19749795221410912	-0.5515647538160534
 0.21078972614082414	-0.9723474490297203	 0.10053919493845206
 0.8300625619128068	-0.07098339960646911	 0.5531342515981599
 0.9497892587437651	 0.17162694937524237	-0.26161910141103484
 0.05826275832704457	-0.6545868255363775	-0.7537383755828891
-0.009208222451484454	-0.986914804328132	 0.16097943234230014
 0.5302788153810598	-0.7094697088228799	 0.4641735776849411
 0.9977785227451119	-0.012794363759281474	 0.06537831295297826
 0.04932244314875967	-0.1023512777497648	 0.9935247921138295
 0.1325255190859449	 0.6960087407299559	-0.7056973994698451
 0.5031591755244473	-0.8468221288277566	 0.1724039622896897
 0.14259018406952795	-0.38260205397778113	-0.9128437476912471
 0.012231802305063802	 0.9011667354059352	-0.43330000924322565
 0.2898846133280341	 0.9212414012306294	-0.2593861823888911
 0.5061348852749306	-0.8510174039420332	-0.1399887713193296
 0.9402053777001813	 0.3381981549262199	 0.040445713594395756
 0.45251441472891873	 0.4631297081441812	-0.7620640248016105
 0.6330220250497549	 0.5634009701510181	 0.5309072071791823
 0.6062636326440812	-0.6689291564732744	-0.43009091056793575
 0.4223296937178367	-0.234782757863806	-0.8755082446294059
 0.9834102518423188	-0.1200028715580728	-0.13602789195324688
 0.07607432778978412	-0.17497677751019533	-0.9816291682623741
 0.7346580044849529	-0.4246130874858956	 0.5291326321272222
 0.6074514641937685	 0.7325211155098202	-0.3072711082758925
 0.26216015322801917	-0.8777037118884685	 0.40113370364090056
 0.08718976675182537	-0.9773042118358343	-0.19306584913366034
 0.20857619757710213	 0.1827905955408651	 0.960772380944672
 0.32552438617136287	 0.7046205810031408	 0.6305106746396557
 0.7797170558252864	-0.6166856807972699	-0.10835166798326352
 0.7897476833428397	 0.6121160821319215	-0.04015592920210962
 0.3979969273598639	-0.2261671949024841	 0.889070776576336
 0.7407742556364705	 0.23278791689053474	 0.6301295802737709
 0.29062017785067723	-0.8601865748095981	-0.4190691694021076
 0.4560448501868958	 0.40071494443089445	 0.7946386775936325
 0.3625458326214396	-0.6290178826862988	-0.6876750849853968
 0.6713874373873033	 0.5128903942321138	-0.5349601409665368
 0.9266748282526679	-0.37256111848525664	 0.049718966963356606
 0.432642001429278	-0.5206714188288036	 0.7360177798219751
 0.24668185286647187	-0.6184692675934145	 0.7460856710250037
 0.2844562944863366	-0.6946405191101982	 0.660726241144861
 0.504513690694387	-0.6554100788804526	 0.5620529907436198
 0.6001530870494105	-0.3975594825522507	 0.6940912979845298
 0.4534474728169138	-0.319314318189552	 0.8321200367705947
 0.2775923948080827	-0.446269956461168	 0.8507558923127483
 0.9654246575229699	-0.20025358882578523	 0.1668943702137665
 0.9814281497621935	-0.18860433399062407	-0.035031301065059146
 0.8908090081996044	-0.43084441962771636	 0.14433432365897386
 0.8148631190122345	-0.5795898597291576	 0.008584391229937222
 0.9221368433458712	-0.3527006509619365	-0.15895248647044974
 0.8068760226493337	-0.5547905250592831	-0.20287571904502835
 0.5513491219054805	 0.454353608507811	-0.6996977520401123
 0.7744895203325747	 0.3064593648227936	-0.553397362306172
 0.612047582826532	 0.6719538368811324	-0.416984169312126
 0.4930511959158442	 0.6343860359619408	-0.5953611303926811
 0.8202387500673974	 0.446033952903671	-0.35813699298592383
 0.7596550057247307	 0.549637563031262	-0.34759577325165414
 0.5450768130905931	-0.5775012475727637	-0.6077693451325957
 0.36334350137370175	-0.4299182883462981	-0.8265299542998357
 0.5473716234529786	-0.4793512800337111	-0.6860077668426892
 0.2646594662635123	-0.597321420943874	-0.757074954676685
 0.23691097345967688	-0.7696155764403246	-0.5929292159733869
 0.2713692076812063	 0.37136463758544785	 0.8879454144672991
 0.48086744624062505	 0.5662057948054139	 0.6694606015851785
 0.5860241244272627	 0.2383246509197505	 0.7744527657341275
 0.4800158115794437	-0.8088110604984593	-0.3397197213131521
 0.1253228434993677	-0.808688814619785	-0.5747317513467304
 0.17019476325449456	-0.8992368482857311	-0.4029973117105022
 0.36914314656861036	-0.8673901198337213	-0.3337180207244858
 0.8333299657335874	 0.3328244192220513	 0.4413491522365963
 0.8171925826814155	 0.1675258370462414	 0.551481075588668
 0.6782257808791399	 0.1798268081444774	 0.7125111291926958
 0.7615308107608778	 0.3970717257675724	 0.5122546913966157
 0.8686119411580029	 0.3368785995174324	-0.36335396635360867
 0.8225894411194581	 0.5083751972275906	-0.254757277035586
 0.8777497544311803	 0.4012035109212767	-0.26189904814726556
 0.874174442777422	 0.4593451787538371	-0.1575469782331277
 0.18618354701492704	-0.24623111936560807	 0.9511603033542244
 0.2503271087160642	-0.04617861255950373	 0.9670593954788586
 0.33959206729139874	 0.028766146125782155	 0.9401328292692605
 0.5352487098261084	-0.06857314424542454	 0.841906492740009
 0.8902845270208084	 0.45311674006228136	 0.04559255227190543
 0.7880507003561505	 0.5879030100027851	 0.18260926728357996
 0.669929515987641	 0.737944081309439	 0.08144308729986446
 0.6770870371672942	 0.7018101128507435	-0.2213949177385106
 0.6914191750998139	-0.7177975366443834	 0.08189151782418112
 0.655411758720069	-0.7548237994457978	-0.026008812384964223
 0.7539858923492355	-0.5766508722893166	-0.3146093540031787
 0.09856786442047216	 0.752153243414526	 0.6515749185815827
 0.2681311039277034	 0.7885678543232199	 0.5534134532468329
 0.4325836361406579	 0.6649677058124629	 0.6088426298887396
 0.14861599207105375	 0.6722764696733549	 0.7252293673206205
 0.1855666392108209	 0.294295538869345	 0.937526084017721
 0.11594627274007512	 0.09943003117573493	 0.9882662246267838
 0.05002378443236528	 0.9947159606475654	 0.08965365928982132
 0.35354536117342367	 0.923956291024588	 0.1459809914640952
 0.2550523975891554	 0.8947174850471916	 0.36664546422238997
 0.07052428311138478	 0.9543585982079986	 0.29021714545851585
 0.32851067484775426	 0.942764929474984	-0.057227827698609075
 0.13943969990245322	 0.980803747592731	-0.13631059679705146
 0.007278337402822086	-0.9609507467870367	-0.27662373009936697
 0.1288573640968067	-0.9915896624433016	 0.012071497570817569
-0.06517091803416679	-0.9967656408406904	-0.047021364102201826
 0.2847720746417883	-0.9499456912223302	-0.12848365356083685
 0.2045889996497898	-0.7677188722001669	 0.6072487747949783
 0.04049964291567751	-0.8829873366849655	 0.4676463858276829
 0.1960145123550924	-0.9565791393940742	 0.2157189398784632
 0.31774698342877816	-0.7602838685481647	 0.5665732907112271
 0.4007358738716149	-0.888049763567629	 0.2253405796119101
 0.44957250900187923	-0.7914059978180065	 0.4141993551026376
 0.4300536288467328	 0.8238048639619694	-0.3693229243201102
 0.48032532812884793	 0.8578798779825627	-0.1825642191409313
 0.834195777002466	-0.4302697991559198	 0.3449424670370071
 0.8513324874197276	-0.2584433180922381	 0.4565523488026469
 0.7401415858539772	-0.24606676317023576	 0.625812736329713
 0.6993291483257839	-0.580500428594645	 0.41708271925766394
-0.0751041184825917	-0.05230108785034028	-0.9958031771372414
 0.12331323565180473	 0.028805800851324684	-0.9919496316599934
-0.24348917703407996	-0.23460625644895014	-0.9411019738063863
 0.0263245601175924	-0.3761883806058966	-0.9261691637231984
 0.2773754112058383	-0.1023291879163644	-0.9552966128688878
 0.2287603185512231	-0.2972664921421348	-0.9269850858055123
 0.8891626728011173	-0.2910721169394351	-0.3530818092702728
 0.9888618192193462	-0.0036415464199438035	-0.1487919407423547
 0.9339678821714821	-0.030990494575203642	-0.35601065197280385
 0.4954600799631195	-0.1457884665180143	-0.8563089583749928
 0.6119015833590299	-0.2832021313370919	-0.7384937407242129
 0.6775541374991577	 0.6024624014448535	 0.42185239788707224
 0.5286374600188881	 0.7445738838655487	 0.40761767298554535
 0.39710354407377374	 0.38195724849008184	-0.8345162884030092
 0.22536159430647554	 0.5095805560040336	-0.8303853375116058
 0.2531672784874632	 0.667381685755458	-0.7003627735834156
 0.9561096530572227	 0.2866276249430862	-0.06081887823926608
 0.974840189800286	 0.1578016025254489	 0.15743334650112337
 0.9140672165491506	 0.32161577458949225	 0.24707168426448467
 0.45694233437232945	-0.8889012080000411	-0.03253222209493156
 0.24012861028392163	 0.8581346404672165	-0.4538096399960163
 0.09440934940830624	 0.9350423012647924	-0.3417349405456541
-0.1832014260331746	 0.848974410661605	-0.4956608594000459
-0.10268780530002679	 0.9034458465610338	-0.41622207650998166
 0.16613845655152434	 0.824153839037046	-0.5414503327685525
 0.011332063317665682	-0.566131478731212	-0.8242370612454745
 0.6392882949926266	-0.7138084051487743	 0.2859860776757912
-0.05792267129541645	 0.6434207818494595	-0.7633181916044145
-0.007472214276360009	 0.5524079191765732	-0.8335404350388869
-0.0918854360244705	 0.043894524066338626	 0.9948016573184741
-0.14995221840548179	-0.15545027306265433	 0.9763962027783705
-5.084532854314382E-4	-0.30716331113580747	 0.951656682720898
 0.962156085845828	-0.02327756657909679	 0.27150289384091536
-0.20859442341249576	-0.9730415160653707	 0.09837974656611796
-0.13995423828093942	-0.9438171062272077	 0.29936947269236036
-0.19221514962205982	-0.6151418392327141	-0.7646266107592405
-0.07634552166387719	-0.7759402479421624	-0.6261693803958528
 0.8772277697638389	 0.15470045869392474	-0.4544658491405604
 0.6972168899802084	-0.05616128587821702	 0.7146569234918467
 0.8850890298313279	-0.017536614354026453	 0.4650912560231992
 0.6837381942841593	 0.1346586897192687	-0.7171953143740742
 0.7867308964592116	 5.947332346156734E-4	-0.6172958309018985
 0.520072425025771	 0.827746513301486	 0.21061904577945173
-0.08499841801804937	 0.8166873104980094	 0.5707863924498878
-0.10843061977757497	 0.9102067786627819	 0.3997079193248151
 0.7690748466940496	-0.3086848348546603	-0.5596762929705665
 0.7549155618157544	-0.20761741305098683	-0.6220912347288138
 0.0894265544706417	-0.7640140330519279	 0.6389721814408175
 0.16955035099563442	-0.6959384344675523	 0.6977982329499764
 0.3830974769038252	 0.19170125970334573	-0.9035966745280074
 0.5297400209913488	 0.059562206383085785	-0.8460661048232959
 0.0840836103995419	-0.5232341456583929	 0.8480306452477469
-0.044670939583860376	 0.3494594776454217	 0.9358859869879901
-0.0011511987791943408	 0.5307675688051467	 0.8475166444654907
-0.018576901198409407	 0.36348690065763045	-0.9314140710726754
 0.15015839613466023	 0.23315052720222817	-0.9607774392311622
-0.5654944875784191	-0.4175774894612308	-0.7112278290489462
-0.5043241207681126	-0.35067345656038124	-0.7891041173859534
-0.39772580476096336	-0.38886046998822626	-0.831024499703697
-0.43529579317828426	-0.27824479285185993	-0.8562110765997565
-0.4627579547645539	-0.4596846162533282	-0.7579875519308729
-0.3541962126651344	-0.49477448021908504	-0.7935636437347727
-0.5327354213738427	-0.82437344071142	 0.1913149263995086
-0.4640182056030186	-0.8016039881294239	 0.37698561124260116
-0.2686958917672545	-0.8645487109475283	 0.42468581816016326
-0.4017688321689949	-0.9145705812387048	 0.04628668739777839
-0.7733512744001511	-0.6154345615749507	-0.1522107315622348
-0.9016870856438738	-0.41603697548568247	-0.11778639400110442
-0.7776808265312771	-0.6063694365795668	 0.16591756515754658
-0.6444920197306938	-0.760250160354109	-0.08154587779282771
-0.6990404090895179	-0.7010231356968395	 0.1410995027550772
-0.19044040872234758	-0.9240824752474771	-0.33136691094036724
-0.3383976706534501	-0.9219063014312422	-0.18861544973221858
-0.16891942627754755	 0.9656226348493658	-0.1975832849525298
-0.13764901881089595	 0.9903999839125035	 0.012673574338390968
-0.47985480443588013	 0.8773438960513791	-0.00265607251223909
-0.3611474802669552	 0.9018614690118744	-0.2371041716389087
-0.3169535442566894	 0.9402136156557593	 0.12465475409565056
-0.6264272439384752	 0.7185145755251957	 0.30220144408902816
-0.6578814592261616	 0.644109582542947	 0.39027532753532734
-0.8230703530896331	 0.5637546997814032	-0.06881738399043116
-0.6979441893500916	 0.7058757800208098	-0.12088544880363819
-0.7653894684448854	 0.6201082387673326	 0.17217646124407573
-0.6337548652609648	 0.7664851522598521	 0.10418868519780741
-0.10541053783080441	-0.799873289251249	 0.5908395210686302
-0.27541450950869256	-0.6893374441348276	 0.6700453238891753
-0.21868992388692327	-0.5383394749453685	 0.8138582965761773
-0.8777912149972514	 0.4243701055998186	-0.22224445177967414
-0.9760573132698045	 0.21413871604639675	 0.03816715214070437
-0.9561687179666822	 0.24425873304826753	-0.16149010530557792
-0.9149665914714166	 0.3549591301156641	 0.19193788692884228
-0.6799995706792638	 0.5598358559509626	 0.4734811487986296
-0.885624483653417	 0.26082730684330757	 0.38423741353294316
-0.7646849191771661	 0.3803585378761966	 0.5201772361875256
-0.5166891696106906	-0.6008366742931762	 0.6099406469742207
-0.37291926791710917	-0.38806387819834093	 0.8428153095748977
-0.5440370900911894	-0.4291207581133629	 0.7210263653718385
-0.5154127956121098	 0.5942297097533331	-0.617446922549444
-0.626426335450352	 0.39271413492996166	-0.6733243308246444
-0.47672380061377007	 0.3468793169797143	-0.8077184889428056
-0.2539530931248329	 0.378387943456915	-0.8901294235889389
-0.4046619005279464	 0.6239201870296119	-0.6685599049285296
-0.20060214184451478	 0.2826252172105601	-0.9380201315985052
-0.22201581004760107	 0.075820070826133	-0.9720906835006844
-0.7455135231181265	 0.22052601592572954	-0.6289498097208741
-0.8605878892367999	 0.2144400312302147	-0.46195666236664934
-0.9185607662679688	 0.029175925581203382	-0.39420157792642396
-0.6952344874560643	-0.2513282473691336	-0.6734115528605543
-0.6740526653337015	 0.04623909050545836	-0.7372346647206445
-0.851100283566846	-0.14105936117373621	-0.505698095643727
-0.5644206393067196	 0.7190279937489658	 0.40549733184070563
-0.35262906590232024	 0.8407512033142247	 0.4108407915562192
-0.23194345805142613	-0.8242703855800704	-0.5165080480716909
-0.36495903098107896	-0.6595751480042173	-0.6570886773035789
-0.5489913713771465	-0.7215830523202489	-0.42181319651906724
-0.5112832255302195	-0.8265569806939752	-0.23535721989663763
-0.758521734531993	-0.4372837800208447	 0.48314353351075556
-0.7254678050709459	-0.3673530544243171	 0.582020787610433
-0.8046467640825768	-0.02881859060027414	 0.5930540227392881
-0.7092702669841933	-0.1797176765163107	 0.6816430481709251
-0.854714196963523	-0.09846934488996599	 0.5096738463232552
-0.515255750426865	 0.773788893192529	-0.36845930633372403
-0.8554072210573016	-0.3136699402818938	-0.4121767275412064
-0.706100768959667	-0.42818961850497206	-0.5639816971135975
-0.5017904633198056	 0.08946967765826892	-0.8603496427040699
-0.75088645860891	 0.1698201972927563	 0.6382245896776613
-0.9477009945840198	 0.01276170030775893	 0.3189043177345124
-0.6555117077739272	 0.6011532229482259	-0.4570768026385392
-0.7954403238113248	 0.4437497570732074	-0.4127479186530257
-0.34143153986880465	-0.2022217552002291	 0.9178948007841398
-0.3190398143577579	 0.11284946231001167	 0.9409987224810185
-0.5537314366467478	-0.13125582638889605	 0.8222854760410747
-0.5031020067670277	 0.06708315001072844	 0.8616195342328468
-0.6100290392115433	 0.7288075077117898	-0.31097296992113443
-0.252949323778073	 0.30337467845531646	 0.9186840828447771
-0.2289737988950826	 0.621086020838724	 0.7495486336044344
-0.358989315928693	 0.4601723109600161	 0.8120148491713484
-0.7089345367738832	-0.5771959731222235	-0.4052858635342336
-0.969689513750143	-0.21926836885725623	 0.10781293680115277
-0.9929275357858425	 0.016143020367354904	 0.1176193503283951
-0.9353477168439748	-0.2855915424988237	 0.20871540299629643
-0.5516653356485549	-0.7268154480424618	 0.4091511480255223
-0.49488601877825944	 0.7091494978584935	 0.5021900219088896
-0.5920641112738837	 0.6387661472333788	 0.4913633047858702
-0.3144163896165858	 0.7430635065687226	 0.5907613385676702
-0.6150864433496395	 0.4513818352248265	 0.6464697255375216
-0.6081288915809796	 0.22480520218327374	 0.7613421519237107
-0.3901297229190864	-0.08878835808247455	-0.916468999347002
-0.9147184472684085	-0.34384358696537926	-0.21227753043987904
-0.9765449404266342	-0.18908702978120792	-0.10298579754345723
-0.9804570492506202	 0.004633271113804888	-0.19667869069513635
-0.9539036630406738	 0.07847819975387896	-0.28967045724577317
-0.9418317626959168	 0.19754628174384709	-0.27189777002815385
-0.97529416937781	 0.12527537853084486	-0.18195428742297215
-0.9523164118932231	-0.04126108430276388	-0.3023094020386684
-0.9721195913058488	-0.11433678645095942	-0.20472078415104172
-0.9926453000448306	-0.07123032531344714	-0.09788538733972894
-0.9891515974082419	-0.14683674759254217	 0.00425286975672344
-0.9502881503005077	-0.2305962246773995	-0.20923148081244833
-0.8611611993386955	-0.4542466967246831	-0.2281695143270753
-0.9466343944697153	-0.3041079287784424	-0.10677870040902994
-0.9096288784807656	-0.27325204059993763	-0.31290354063480147
-0.8677937269235877	-0.3862758834092274	-0.3126099637063587
-0.30582590581773816	-0.014147693066926823	-0.9519823307770182
-0.33357447613092067	 0.09802968730795338	-0.9376130594655169
-0.4175718244501791	 0.029195779352264258	-0.9081747507464424
-0.494191009621044	-0.04347284499846544	-0.8682657184050702
-0.46780234241805657	-0.163402520779203	-0.8685969057227763
-0.35901575659222695	-0.20276209375943083	-0.911040734464054
-0.6778621282100643	 0.1379422896223033	 0.7221321623306076
-0.5956341467579781	 0.1030889231363712	 0.7966132293293146
-0.5218316983334296	 0.18702356789204969	 0.8322943371592629
-0.5319348577163254	 0.30793557101419533	 0.788809857475472
-0.6862843213992049	 0.25830921935372425	 0.6799192432918062
-0.6139986604580899	 0.34307475556038286	 0.7108483361820964
-0.5338952805075475	 0.42353477250224714	 0.7318293010895621
-0.530704921788448	 0.5281909975347382	 0.6628473098027746
-0.4456675820540981	 0.49886944815180023	 0.7433099488146061
-0.20607006113933707	 0.7885783942607225	 0.5793783271811351
-0.12879300875868332	 0.7448272196597481	 0.6547096866159957
-0.23232318032043897	 0.7039291730389374	 0.6712001633123419
-0.39081829476269586	 0.7698639802974607	 0.5045498115343321
-0.3345970000603547	 0.6564143901674208	 0.6761397754397712
-0.4187144377571467	 0.6881949013839788	 0.5925082255317748
-0.6091743093019352	 0.5491829096661552	 0.5721055782083635
-0.5184353870838132	 0.6234175127726717	 0.5852993714225163
-0.4622426495947537	 0.7849639848592141	 0.4125085155115777
-0.4486005458183681	-0.6819947596209115	 0.5776163935875415
-0.4569379813662744	-0.7446042571142047	 0.48659241822321664
-0.5496802899070787	-0.7795889419760804	 0.30015439433112634
-0.6345712573604291	-0.638212491885537	 0.43589463696317426
-0.5468132109376024	-0.6645223342215001	 0.5093185443952716
-0.6362109078411416	-0.696727402143985	 0.3313708011361958
-0.7136208877424786	-0.6025366279543781	 0.35734414861727376
-0.7837936397951384	-0.5574131968140323	 0.27378469320663273
-0.701417283899464	-0.5418021672127732	 0.46310280224874595
-0.776884253037649	-0.5015517664804995	 0.38065296914962427
-0.895906296780168	-0.39705452123567836	 0.1992476212052525
-0.8881598887528723	-0.34279581088231453	 0.30604418643722364
-0.9212292308185105	-0.2290036700920302	 0.31447420143775895
-0.9615952887961081	-0.17094390326077935	 0.21473863765773246
-0.8916491786020623	-0.44353084848406266	 0.09078617042961608
-0.9373543384578826	-0.333568868000037	 0.10049206175295261
-0.9829349533856404	 0.1349997605911894	 0.12495576038378703
-0.9955957155241492	 0.09201058684444983	 0.017978407562892824
-0.9744052067654617	-0.05410014813482075	 0.21819181240401428
-0.9720403637450352	 0.06376928947039245	 0.22598895763036964
-0.9884394027835496	-0.10260026177561635	 0.11162765476563029
-0.9995563298078675	-0.028129287718567132	 0.009792176135659752
-0.6643239968503754	-0.6975393232453001	-0.26853774359525584
-0.7331151043277593	-0.6149772674125394	-0.29042245845028025
-0.6138376407711263	-0.6286819275487803	-0.47745406558755776
-0.6442228136230888	-0.6667046874966881	-0.37480905282222654
-0.7424099599690777	-0.48448570590744894	-0.4627105489505004
-0.6623619168831189	-0.5360902114298116	-0.5233392554281211
-0.44897513116750454	 0.38666594717676345	 0.8055499841021777
-0.3580268558667644	 0.3435245086883282	 0.8682209870814009
-0.2606010516750387	 0.5279480510153796	 0.808305602662091
-0.347356277928621	 0.5674481769602241	 0.7465562153301605
-0.17277128988220297	 0.4802532861730811	 0.8599458485930359
-0.13447855490941743	 0.5702897046997975	 0.8103611361503541
-0.13796540307466304	 0.2677610934667021	 0.9535562617800598
-0.1593474608341823	 0.374473534008185	 0.9134429150489479
-0.34167351475449853	 0.22845904810181084	 0.9116280341541291
-0.23111233350332444	 0.1917086614027471	 0.9538526502798087
-0.695124901142622	 0.6784236937979174	-0.23778701290240728
-0.617677417507017	 0.7613254417848194	-0.19712478178304224
-0.5878387849920285	 0.6915341137838128	-0.4197929636527182
-0.5349548489957738	 0.8067562257613875	-0.2509336600202335
-0.681294984652041	 0.6425451686743154	-0.3506748495419523
-0.4249605428509158	 0.14929600622952885	 0.8928153445947081
-0.40150168223749194	 0.03125068213907749	 0.9153249663514629
-0.4799387988776298	-0.05067858772811409	 0.8758369883019226
-0.5781691582300793	-0.015426267603289242	 0.8157710798620857
-0.6474126445437994	-0.09826351504704332	 0.7557785054468031
-0.6209530060026556	-0.21224374204046062	 0.754566072853086
-0.45090019328189024	-0.16646282305227159	 0.876914559258667
-0.37444047276461734	-0.08620732954407713	 0.9232348718980934
-0.2932664748315562	-0.004143512812272283	 0.9560217602342778
-0.20717612922161824	 0.07741546573935537	 0.9752358161722251
-0.26372264093892944	-0.12126575250217393	 0.9569456546357679
-0.2277659601646976	-0.23761988820130428	 0.9442772135985561
-0.3018686359734516	-0.315539247055776	 0.8996167573933923
-0.4153944741106985	-0.27919146661318506	 0.8657364240048326
-0.8176922085237514	 0.48815658487602964	-0.30509441286546307
-0.8348722858247567	 0.33175872896128206	-0.4392316155739938
-0.8626252952909021	 0.3801625041336807	-0.3336975732232609
-0.8948264999317944	 0.26617682976086765	-0.35837889212154833
-0.7434904176915635	 0.5474959503586271	-0.38401846718840027
-0.7140741186425428	 0.5021455922260002	-0.4877990952153102
-0.6200067458778009	 0.5531211496660206	-0.556460806219234
-0.9278076079449329	 0.153771491103168	 0.33989317610597886
-0.9566540186063719	 0.17128234104946058	 0.2355322660038235
-0.9105756531309581	 0.06740854623222935	 0.40780886187034565
-0.9083830547237306	-0.05327317173298179	 0.4147314734431091
-0.7588132037091978	 0.2829501779545703	 0.5866359336693078
-0.8176330036740375	 0.19262892847298865	 0.5425590909922343
-0.8155093791990635	 0.08743165882019666	 0.5721015272434664
-0.7458235889409944	 0.05262266072215358	 0.6640617665230365
-0.5991083975236814	 0.22152238563376972	-0.7694133873801066
-0.5110158074910268	 0.20950713675678548	-0.8336483696033162
-0.5834034801857869	 4.719924300911503E-4	-0.8121823419222176
-0.594101697067351	 0.11245697961461154	-0.7964901765104531
-0.6599242950371972	-0.36826746204802485	-0.6548885410635653
-0.6179639108572114	-0.4796417652555916	-0.6229481374083724
-0.8129160442338007	-0.42393543749274987	-0.39930721238803124
-0.7844860797355314	-0.3693465931118798	-0.4981613040550472
-0.8224833974134564	-0.2552279846629334	-0.5083106695949986
-0.8882914205414248	-0.20273418862067147	-0.4121130924355786
-0.29845680004862357	 0.8349276149010377	-0.4624061162878367
-0.2617384497005846	 0.7838014899892227	-0.5631591322521631
-0.33520067927484815	 0.7078865233233337	-0.6217211390252737
-0.48569191448324744	 0.7331302485930715	-0.4760497902567115
-0.37539373470836257	 0.7634373531736925	-0.5255881959489331
-0.4091477357293425	 0.8084913094055399	-0.4230129229270278
-0.4365370376372866	 0.8430429055498735	-0.3141879599425946
-0.45839165467455484	 0.8664982015535757	-0.19763086203612734
-0.8935697799470215	-0.1697362270425209	 0.4155991597619051
-0.8335648212332752	-0.21532271144356838	 0.5087296126027342
-0.7874257837430155	-0.14454218567903007	 0.5992229899259762
-0.8659349236408447	 0.0242452621037452	 0.49956868925568704
-0.6790413203830161	-0.2913816956541238	 0.6737949188367465
-0.7311657994811657	-0.06476317751447493	 0.6791187705455478
-0.5867986464181497	-0.3226608749729589	 0.7426690436011938
-0.8017430850845852	-0.3282692259316449	 0.4994470350550602
-0.6396570428988146	-0.3993035727825895	 0.6568070677398373
-0.6785553257598529	-0.47328771319648777	 0.5617485295220442
-0.8669505237743159	-0.2835385749810175	 0.40988128259920975
-0.8284951232848696	-0.39448558067264566	 0.3974631521720652
-0.5459019914486415	-0.8299237873284458	-0.11496748652908721
-0.6065085624854821	-0.770958890107369	-0.19434441951393433
-0.4448486706064283	-0.8823103416795746	-0.15374693891250643
-0.4100346848185558	-0.8705376647064537	-0.27209507818625034
-0.4781993063449909	-0.8045891717410433	-0.35208193382823777
-0.44859098744555864	-0.7661141460810823	-0.46025562588313107
-0.4119905448762105	-0.7174373671002002	-0.5617360725651646
-0.5151632390043424	-0.6774936398172805	-0.5249849571041897
-0.4696737199123986	-0.6249033451069202	-0.6236204022462952
-0.304273499596794	-0.7475712030469795	-0.5903854112509992
-0.3427784198411351	-0.8005303905362491	-0.49158320630295677
-0.11605652958227645	-0.8363433832443018	-0.5357803908737175
-0.19238233602614238	-0.7673546512680121	-0.6116828230075387
-0.15344192619363448	-0.8860209993085741	-0.4375184156926689
-0.26726521441369255	-0.870245325676407	-0.413814424957332
-0.305085555523895	 0.8984893560031478	 0.3156575374669918
-0.18088365657802086	 0.9327433184537887	 0.3118829983547978
-0.23423144892252343	 0.8835364489487006	 0.4055847281577251
-0.42055005446489685	 0.8496658766205654	 0.31812819710955975
-0.37228295085842883	 0.9015603799296045	 0.22044111649446926
-0.5279096068408704	 0.7888937631234565	 0.31457602818719305
-0.9097563953242173	-0.08862669387868226	-0.40557195452696343
-0.8685165154587331	-0.02490463843949054	-0.49503416181069654
-0.8025124306699875	-0.079567189146082	-0.5913060637534004
-0.7782135709325423	-0.1954389751753139	-0.5968142466453396
-0.743342967962311	-0.01733844640357195	-0.6686857335529848
-0.7535390324492574	 0.09928817407369031	-0.649862127735222
-0.7233329782144969	-0.13365118376651036	-0.6774413359879635
-0.6582695339124055	-0.06921371567818585	-0.7495936781248649
-0.635600335904723	-0.187750015037475	-0.7488405336593575
-0.9135882476535949	 0.14843289349050137	-0.3785818139838089
-0.8720067646086307	 0.09443072870169973	-0.4802989068836762
-0.8140930435081014	 0.15794564528576138	-0.5588431708869501
-0.79561498422338	 0.27868136006312505	-0.5378972917133881
-0.7185795781731577	 0.34078873421631134	-0.6062230847334431
-0.6660385618694981	 0.2813365183891535	-0.6908273282980925
-0.1908611973805467	-0.03684507669175634	-0.9809252997339006
-0.10906351763256977	 0.06074158499974204	-0.9921772064371008
-0.2699816539581659	 0.18663622684255013	-0.9446040574526396
-0.15341167534649594	 0.17441830994442442	-0.9726474752054375
-0.08434150213681939	 0.27066387496815997	-0.9589721465217461
-0.32004233229556134	 0.27519266807064785	-0.9065549630215345
-0.13562891736613325	 0.37759738084068306	-0.9159830865012449
-0.17445759161760946	 0.6477129660572645	-0.7416417344838979
-0.18990872019936353	 0.4737311959239689	-0.8599496682950032
-0.24130162843531913	 0.5633524409885456	-0.790194628776171
-0.3050588412960141	 0.4723683437108051	-0.8269263880219593
-0.3576323829792685	 0.5518931628296978	-0.7533345972849003
-0.2909871884356776	 0.6405094043577563	-0.7106856964197125
-0.46834595270794577	 0.531977820369846	-0.705444304829683
-0.44841382558330284	 0.6834504326781367	-0.5760386680578095
-0.36559997503589037	 0.3749310704371891	-0.8519174553174622
-0.422719302448976	 0.269223945291268	-0.8653478252233927
-0.5693620339211987	 0.3254042825894339	-0.7549429959947784
-0.5251512644129572	 0.4327126137964822	-0.732786424101108
-0.5760473023542207	 0.4976056649112073	-0.648504516328684
-0.6747325726442756	 0.4508562623940455	-0.5843497121355578
-0.58925952154131	-0.5030390332156092	 0.632238046414807
-0.4904495420538773	-0.5321778583610433	 0.6901057699870329
-0.4401266630410963	-0.4555892234257216	 0.773774502021524
-0.48521248495462266	-0.3520871905922021	 0.8003770703018988
-0.2583576967447231	-0.42693211832693506	 0.8665911763188209
-0.14699122092802316	-0.4673090430554113	 0.8717888730929784
-0.38859568621420976	-0.6410684765646898	 0.6618342700485788
-0.3928148377912399	-0.5567893782647821	 0.7319030615201436
 0.5698584832885893	 0.765993012422794	 0.2975164095364857
 0.8522946213048562	-0.027838705503060595	-0.5223206725477421
 0.836405608974888	 0.08594325369533008	-0.5413311504242175
 0.7646985110663143	 0.11449407021194478	-0.6341350763514539
 0.7112393532719038	 0.020742122163490837	-0.7026438263626308
 0.6482604936590924	 0.24510617885690456	-0.7208892379880816
 0.7336208684961126	 0.22564319255085483	-0.641003565483428
 0.8800791620992069	 0.1018805242200602	 0.4637682904462137
 0.8300481794214722	 0.049227002729809434	 0.5555148261219846
 0.925265659168995	-0.08235350557427243	 0.3702720082347483
 0.9083077041892325	-0.20208270700347689	 0.36625086217049746
 0.8754619120565753	-0.1387856653990002	 0.4629308583557616
 0.9283666501548256	 0.03802068085370691	 0.36971582425929284
 0.6939071195375759	 0.06274835810591277	 0.7173252769909036
 0.768918048334907	-0.0030831830768756783	 0.6393399165756447
 0.6173878756371639	 0.005801609855956036	 0.7866374974149841
 0.6142150988902536	-0.11220950089463655	 0.7811202469557506
 0.6884289516720999	-0.17484908510345387	 0.703912903659351
 0.7643263515918879	-0.12330021432950483	 0.6329315013558199
 0.9290287923124404	 0.1023134350002402	-0.3555804607580968
 0.9051213714280688	 0.22257870220793577	-0.3622347640793234
 0.8462066623933313	 0.2686864944590279	-0.460154161359492
 0.8968794521482499	 0.03566148995533136	-0.44083501046130746
 0.0446556653782135	-0.7608134898508906	-0.6474323943166098
 0.005500725186226348	-0.8303899125322974	-0.5571555753889835
-0.14323001095355498	-0.7003916853252856	-0.6992400525495167
-0.02723143203784663	-0.7054552073382265	-0.7082311766284708
-0.07191135408038427	-0.6271017412579142	-0.7756108323544856
-0.11956841660746549	-0.5417592907491643	-0.8319857358374279
-0.02772861601861788	-0.9609717972791635	 0.2752532083150835
-0.04680533242177427	-0.9215650612569555	 0.38539213630710156
-0.23256284013805514	-0.9491648596857417	 0.2121334356594164
-0.1208319209305506	-0.9748597316786806	 0.18721151256160545
-0.17962774768532877	-0.9835702195235279	-0.01798598142819572
-0.09594050137560758	-0.9928583036372028	 0.07090704545003386
 0.9520713398803251	-0.14322501594798684	 0.2702716385142574
 0.9822051139508007	-0.07951969196454589	 0.17014620982777923
 0.9851615361101431	 0.040689084925215634	 0.16673675700652144
 0.9589144528616036	 0.09528028667338619	 0.26721665192231026
 0.07568299966047294	-0.2194215888789189	 0.9726902127071309
 0.11244870610617848	-0.33596314531496724	 0.9351385210144647
-0.03609663886466673	-0.18857117593971762	 0.9813959161660425
-0.11331595166015666	-0.27297062826389057	 0.9553253535861854
-0.18045029964692305	-0.038682887091851706	 0.9828231395340542
-0.06530745666997828	-0.07164675795326843	 0.9952897458419255
 0.023710901731056406	 0.013869273795741571	 0.999622646994094
 4.840283260588978E-4	 0.12828365008253906	 0.9917374001408237
 0.16280980912797635	 0.42970855867972024	-0.8881686330022637
-0.12498455608710775	 0.5622517873124949	-0.8174666894764667
 0.1090683657610087	 0.53327084211815	-0.8388839613062239
 0.05852706082330397	 0.6298325067243639	-0.7745228186597795
-0.10271034260236721	 0.7236334240573626	-0.6824992696769145
 0.014666285405710765	 0.7151954977351593	-0.698770563269344
 0.6266627724363862	-0.7601100640279607	 0.17183265174509613
 0.7098748348910476	-0.6764275813618947	 0.19627390545180784
 0.5571987731367493	-0.7918549669339586	 0.24999047693246385
 0.5479921308499637	-0.7550163412310288	 0.3600763099686333
 0.6276353665316601	-0.6711239337320416	 0.3945459570832009
 0.7134877777957378	-0.6283362104425698	 0.310046444235006
 0.17462403083267208	-0.48070614563241315	-0.8593183632432042
 0.13384212522784836	-0.5701384970445904	-0.810572871309069
-0.04946689976360526	-0.4672526684919149	-0.8827389022893248
 0.06334467083265477	-0.4781463893658043	-0.8759928555722057
 0.12675718603092784	 0.8863707523594858	-0.44528586902258643
 0.31623918564028886	 0.7154139112425796	-0.6230374892943132
 0.28434776590985134	 0.7881720291006027	-0.5458307435144297
 0.08637056541205049	 0.7766233308136594	-0.6240162878213197
 0.20107137708733888	 0.751816038335438	-0.627967312698526
 0.049529181159160635	 0.8448527422001196	-0.5327013273971086
-0.02027246896666895	 0.9446142111180383	-0.32755613130552397
-0.06696617933077463	 0.8528469248084157	-0.517849064564828
-0.21743386798798756	 0.8937846872779883	-0.392264510042868
-0.029263497614737222	 0.7901020744459579	-0.6122763752289863
-0.14570170255368423	 0.7920945967839683	-0.5927538811501788
 0.06083633367372731	 0.9705345985363847	-0.2331555994372802
 0.17572933800399454	 0.9530118824482037	-0.246754030721302
 0.20864597484385253	 0.9121159358042202	-0.3528616964668313
 0.32140867476925433	 0.8746269583930505	-0.36293821434948537
 0.3499502250178698	 0.8142151451929396	-0.46323702070147926
 0.5065101510823347	-0.8599876803567935	 0.062198524782281515
 0.5622301100515362	-0.826033440355097	-0.03957346038142216
 0.35763605946763705	-0.933228867296633	-0.0343559341701619
 0.39994817454785836	-0.9056010011179453	-0.14116757577436542
 0.41350496298184264	-0.9045656144013209	 0.10380122750789511
 0.31873053178153377	-0.9454929404358845	 0.0667379029949678
 0.8588006788105753	 0.3850574352750181	 0.33792331321458136
 0.8948775087694754	 0.271256653640916	 0.35442075581724863
 0.8696479512305991	 0.43159949823298155	 0.239654572344156
 0.911473168126024	 0.38652680339634476	 0.14076112404535762
 0.9508140890462325	 0.27259466083112066	 0.14712144288834744
 0.9429163955793952	 0.21012281041940473	 0.25837390636248964
 0.992887870182357	 0.10532691279072141	 0.055497015115399596
 0.973985193917739	 0.2219319243843372	 0.04581553195248673
 0.9592364690917591	 0.2315421222601413	-0.16202975647591575
 0.9808963273730998	 0.11287102689714605	-0.1584377676980722
 0.9840212246100561	 0.16892718100744775	-0.05626577142279879
 0.3892341796537075	 0.6409130114227235	-0.6616096017882158
 0.3909850064977326	 0.5572431760761517	-0.7325372123042836
 0.28858035358357725	 0.5831386146931462	-0.7593883957365533
 0.174036415406739	 0.6078717300647396	-0.774727878613177
 0.3392965815860532	 0.4810568211247294	-0.8083700665990726
 0.27927594043089193	 0.4040803898077882	-0.8710476380022087
 0.5068820702580588	 0.3641815339190607	-0.7813081192482672
 0.6043132536634438	 0.35184286928204433	-0.7148510941322539
 0.4823992161680306	 0.7107987751324342	 0.5119141505278997
 0.4261004981551274	 0.7935880461721838	 0.4343459202577693
 0.5821055764011297	 0.657650509973562	 0.47817246329564234
 0.6266468904775646	 0.6847140138352847	 0.372129539155887
 0.7545662215827229	 0.5415876910418395	 0.370557134809657
 0.7195349039181473	 0.5024100544628891	 0.4794305572427558
 0.7333545718661424	 0.6150042490853455	 0.2897599791724132
 0.6636623389654794	 0.697456283918667	 0.2703831205183361
 0.7019272907678579	-0.5010229767445233	-0.5062351778070664
 0.6220200365738762	-0.5871503766305426	-0.5180207614789644
 0.7686766615881883	-0.49627300199550956	-0.4035459049724123
 0.6927697788403301	-0.5861419301610504	-0.4201281604851056
 0.5394746821209512	-0.3721714836555968	-0.7552850151459981
 0.5215994215405366	-0.26010224900305445	-0.8125766816197293
 0.591172553317585	-0.16911332031631393	-0.7886163180505201
 0.389897874912631	-0.12354878517355306	-0.9125323801491942
 0.35395620948719986	-0.011180670549758897	-0.9351951637874907
 0.9562524532653135	-0.17319093732020377	-0.23576714116733655
 0.9279512015739638	-0.15308811719607557	-0.3398096465240467
 0.9642986235144043	 0.05107059175796579	-0.25984603007495916
 0.9661127561498041	-0.062121246247820755	-0.2505336168446199
 0.9975628614541293	 0.051737119634699805	-0.04681461202824035
 0.9971559294768502	-0.06632218712504095	-0.03579692450630453
 0.9271919905678494	-0.27698791174232723	-0.25217594924071174
 0.8821724751912562	-0.3843996254565526	-0.2720453123356381
 0.34390709811071185	-0.31975396163778835	-0.8828846537832725
 0.2601715242329863	-0.3999481169776701	-0.8788357535423219
 0.10950708123024687	-0.2807738801981569	-0.9535062807128767
-0.008351515273429203	-0.2711991630295744	-0.9624870212967529
 0.31204934533415785	-0.21214183254378294	-0.9260783168617487
 0.19522074874069056	-0.19148606871348603	-0.961884579744253
 0.160429033771114	-0.08250642920850618	-0.9835930125120496
 0.24020887036409383	 0.009473167809783908	-0.9706750010637206
-0.12575262199053297	-0.25698390483174716	-0.9581991185134401
-0.09016092219341489	-0.36358019602474606	-0.9271895432800352
-0.15904642010233247	-0.14789447078868243	-0.9761308630315753
-0.041894383666211184	-0.16305624045753886	-0.9857269008529095
 0.04204419888148177	-0.0658847405972946	-0.9969410646055472
 0.006062333520231176	 0.04576751521964573	-0.9989337228579828
 0.6750438962130084	-0.5264509741642938	 0.5168801698527692
 0.6064917775806667	-0.6209727989787774	 0.49654859445527194
 0.7787909320375845	-0.5340187354131376	 0.3291028325672445
 0.7619377275432773	-0.4817991393900102	 0.4328053703793801
 0.6983341008374226	-0.36175455104064197	 0.6176270139890029
 0.6417540122679649	-0.465638920366563	 0.6093703172766378
 0.8135946566250243	-0.193204664936918	 0.5483937382554823
 0.7815597598625249	-0.3126124591340326	 0.5398497866608869
 0.8132446491268535	-0.37380046479815265	 0.44598918505186447
 0.8777593930618383	-0.3187736898104576	 0.35766154752270984
 0.8416414627295439	-0.4849159176349823	 0.237689295170601
 0.8912632880361352	-0.3762871455986211	 0.2530962968047135
 0.3677808263671875	 0.9150244163323946	-0.16573346455145865
 0.4416890765553504	 0.8938487362271714	-0.07710509968069709
 0.5112621430667195	 0.8105071435423347	-0.285813210565346
 0.5853135437565615	 0.7856008872076332	-0.20059736168184064
 0.5513909688312606	 0.8287570430611819	-0.09554979365655424
 0.4021382909676735	 0.8750519293768755	-0.26938618344563764
 0.5302699618910821	 0.7527617115030594	-0.3900814956019001
 0.4457398429510226	 0.7620735125854722	-0.469638109422178
 0.36862966647918566	-0.8604233732257356	 0.3518292025945132
